1654
0.010388 0.024278 0.000000
0.005837 0.025530 0.000000
0.001175 0.025943 0.000000
-0.003447 0.025520 0.000000
-0.007881 0.024286 0.000000
-0.012014 0.022337 0.000000
-0.015802 0.019810 0.000000
-0.019142 0.016719 0.000000
-0.021884 0.013071 0.000000
-0.023937 0.008980 0.000000
-0.025229 0.004575 0.000000
-0.025715 -0.000003 0.000000
-0.025371 -0.004607 0.000000
-0.024206 -0.009088 0.000000
-0.022255 -0.013300 0.000000
-0.019575 -0.017106 0.000000
-0.016249 -0.020381 0.000000
-0.012376 -0.023003 0.000000
-0.008081 -0.024875 0.000000
-0.003513 -0.025943 0.000000
0.001177 -0.026179 0.000000
0.005838 -0.025573 0.000000
0.010321 -0.024143 0.000000
0.014466 -0.021916 0.000000
0.018129 -0.018964 0.000000
0.021200 -0.015405 0.000000
0.023584 -0.011359 0.000000
0.025205 -0.006958 0.000000
0.026014 -0.002343 0.000000
0.019839 0.001786 0.000000
0.019202 0.005299 0.000000
0.017947 0.008643 0.000000
0.016115 0.011708 0.000000
0.013766 0.014398 0.000000
0.010974 0.016624 0.000000
0.007829 0.018317 0.000000
0.004433 0.019420 0.000000
0.000894 0.019899 0.000000
-0.002674 0.019739 0.000000
-0.006155 0.018945 0.000000
-0.009439 0.017541 0.000000
-0.012420 0.015574 0.000000
-0.015001 0.013106 0.000000
-0.017100 0.010217 0.000000
-0.018649 0.006999 0.000000
-0.019599 0.003557 0.000000
-0.019919 0.000000 0.000000
-0.019599 -0.003557 0.000000
-0.018649 -0.006999 0.000000
-0.017100 -0.010217 0.000000
-0.015001 -0.013106 0.000000
-0.012420 -0.015574 0.000000
-0.009439 -0.017541 0.000000
-0.006155 -0.018945 0.000000
-0.002674 -0.019739 0.000000
0.000894 -0.019899 0.000000
0.004433 -0.019420 0.000000
0.007829 -0.018317 0.000000
0.010974 -0.016624 0.000000
0.013766 -0.014398 0.000000
0.016115 -0.011708 0.000000
0.017947 -0.008643 0.000000
0.019202 -0.005299 0.000000
0.019839 -0.001786 0.000000
-0.016837 0.009111 0.042381
0.008688 0.015307 0.046976
-0.013808 -0.013510 0.042855
0.020735 -0.007127 0.034504
-0.024694 0.004859 0.018595
0.019872 0.016458 0.015964
0.021346 -0.014992 0.010441
-0.001102 -0.026493 0.016698
0.015386 0.021557 0.005324
0.016782 0.020586 0.001885
0.003427 -0.026318 0.006159
0.025743 -0.003207 0.009863
0.018801 -0.018357 0.002852
0.001048 -0.002997 0.063925
-0.002352 0.020621 0.038102
0.009090 0.022605 0.025472
-0.005530 0.009283 0.058332
0.006178 -0.014518 0.050874
0.022892 0.006831 0.026647
-0.022486 -0.006321 0.030477
-0.014363 -0.001213 0.053119
0.017286 0.014199 0.033271
-0.017321 -0.018235 0.026476
0.017187 0.002695 0.047010
0.024407 -0.008878 0.012062
0.012064 -0.022817 0.018738
0.024979 -0.003734 0.018655
-0.007114 -0.022024 0.032931
-0.003933 0.024898 0.016532
-0.010600 -0.024563 0.007673
0.020483 -0.014236 0.022431
-0.020096 0.015594 0.010933
-0.006699 -0.025719 0.005825
-0.003571 -0.026274 0.006229
0.019214 -0.017902 0.008032
-0.000559 -0.026580 0.008471
0.024345 -0.009766 0.004718
-0.024462 -0.009134 0.007189
0.018304 0.018992 0.006770
-0.018002 0.018048 0.007206
-0.008924 0.023884 0.007806
0.021499 -0.015031 0.005278
-0.014797 0.020652 0.004717
0.016420 0.020655 0.009928
-0.017983 -0.019469 0.005875
-0.000231 0.025924 0.006749
0.017802 -0.019008 0.012841
0.019724 0.017679 0.002477
-0.022511 0.012147 0.002550
-0.024484 0.007458 0.012070
0.013388 0.022921 0.002474
-0.024422 0.007997 0.005406
-0.021077 0.014513 0.005690
-0.023309 0.010759 0.003704
0.012087 -0.023498 0.005384
-0.023201 -0.012132 0.004682
-0.020676 -0.016264 0.004861
0.015464 -0.021285 0.001973
-0.021957 -0.014311 0.004392
0.020593 -0.016292 0.002724
0.015335 0.021617 0.003157
-0.018395 0.017599 0.002409
0.005580 0.008203 0.059367
0.010936 -0.002815 0.057659
0.007547 0.019331 0.038543
-0.007647 -0.000555 0.061357
0.003926 -0.010132 0.058389
-0.005383 0.015826 0.048720
-0.000560 0.005064 0.063250
-0.004423 0.023025 0.027962
0.002418 0.013962 0.053744
-0.005334 -0.016988 0.046971
0.015313 -0.011971 0.041983
-0.020635 0.003693 0.037291
-0.000941 -0.020263 0.040763
0.002389 0.025506 0.014836
0.004032 -0.024639 0.025619
-0.008793 0.022814 0.021781
0.001880 0.019073 0.043006
-0.022534 -0.011763 0.023250
0.017055 0.009238 0.042025
0.017420 0.016954 0.025717
-0.018324 -0.011057 0.037133
-0.014559 -0.008631 0.048423
0.019026 -0.004212 0.041591
0.015958 -0.014984 0.035068
0.012348 0.019504 0.030881
-0.012601 0.008457 0.051630
-0.003870 -0.025060 0.025214
0.023895 0.009438 0.015763
-0.011888 0.003427 0.056205
0.013305 0.007786 0.051401
0.002384 0.025031 0.019561
0.001569 -0.022891 0.032810
0.013322 0.014762 0.040913
-0.014373 -0.017640 0.034071
0.008453 -0.018725 0.039440
-0.015603 0.019235 0.018414
-0.019627 -0.012912 0.030909
0.006453 -0.025289 0.017378
-0.024526 -0.004974 0.022904
0.014338 0.021265 0.018000
0.023053 -0.006719 0.026214
-0.009530 -0.024942 0.017751
-0.015540 -0.021293 0.021525
-0.022383 0.001768 0.032583
-0.023184 0.006011 0.026390
-0.019256 0.011707 0.031528
0.018655 -0.013996 0.029771
-0.008044 -0.025464 0.011636
-0.025473 -0.000929 0.017309
-0.018927 0.015441 0.022358
0.023435 -0.010450 0.015830
0.024577 0.005751 0.018805
0.022606 0.012999 0.011709
-0.025684 -0.000271 0.013436
-0.018957 0.009883 0.035916
-0.022963 0.009479 0.020549
0.025545 -0.002720 0.013524
-0.024685 -0.008456 0.011107
-0.025306 0.003466 0.014489
0.021310 -0.014608 0.014695
-0.002013 -0.026534 0.009775
-0.010200 0.022963 0.015276
0.015317 0.021110 0.013596
-0.002363 0.025564 0.010790
-0.006236 0.024882 0.007998
-0.025674 -0.003588 0.010341
-0.018132 -0.019545 0.010676
0.003647 -0.026217 0.014079
0.020618 0.016236 0.009046
0.024833 -0.006412 0.014934
-0.025822 0.000710 0.006082
-0.013153 -0.022950 0.004122
0.018714 -0.017706 0.016811
0.017943 0.019179 0.009657
0.010516 -0.024007 0.013010
0.012711 -0.022864 0.014170
-0.010959 0.022956 0.007335
0.025139 -0.006846 0.008121
0.015445 -0.020817 0.016098
0.009641 0.024518 0.006165
-0.000861 -0.026606 0.011118
-0.025354 -0.005543 0.003805
-0.021804 -0.014829 0.007892
-0.025778 0.001904 0.004203
-0.022228 0.012357 0.012263
0.022309 0.014004 0.006400
0.001496 -0.026427 0.012470
-0.025106 -0.007247 0.007371
-0.006587 0.024573 0.012064
0.018990 -0.017978 0.010866
0.010403 -0.024227 0.007608
0.019355 -0.017423 0.013453
0.025801 0.000705 0.012020
0.025123 0.007217 0.006922
0.026043 0.000716 0.007544
-0.025834 -0.002094 0.003030
0.011081 -0.023868 0.010169
-0.025845 -0.001594 0.009771
0.016888 0.020006 0.012227
-0.014829 -0.021939 0.003742
0.005796 -0.025787 0.008213
-0.021440 0.013751 0.010499
0.024898 -0.008113 0.002656
0.016021 -0.020930 0.007007
-0.024308 0.008194 0.002874
0.024915 -0.007976 0.005652
-0.024734 0.007000 0.010427
0.020035 -0.016946 0.009077
-0.013047 0.021784 0.002752
-0.020558 0.015196 0.008572
0.010116 -0.024340 0.004164
-0.023190 0.011068 0.007280
0.025747 -0.004430 0.007654
-0.006515 -0.025664 0.003852
0.007201 -0.025407 0.010721
0.006250 -0.025664 0.005708
0.022730 -0.013210 0.004312
0.021707 -0.014635 0.008107
0.022166 0.014304 0.002155
-0.016716 0.019172 0.003853
0.008665 -0.024999 0.006313
0.014110 0.022360 0.006924
-0.019700 0.016190 0.006656
-0.023098 0.010965 0.011727
-0.017536 -0.019704 0.004052
0.012142 0.023553 0.006837
-0.025128 0.005328 0.002245
-0.022565 0.012125 0.005319
0.020462 -0.016435 0.007210
0.014685 0.021851 0.009416
0.003610 -0.026320 0.008881
-0.010745 0.023091 0.002278
0.019703 0.017599 0.006978
0.014600 -0.021910 0.005008
0.001779 -0.026440 0.009930
-0.000144 -0.026508 0.005967
-0.025578 0.003345 0.005593
0.005515 -0.025794 0.012163
0.006192 -0.025613 0.003260
-0.022012 0.012965 0.007933
-0.015238 0.020284 0.002406
0.001483 -0.026387 0.004836
0.018566 0.018822 0.002718
-0.018970 0.016928 0.008956
-0.001759 -0.026528 0.007252
-0.022942 -0.012364 0.002418
-0.008882 -0.025081 0.006857
0.009715 0.024526 0.003920
0.019536 0.017843 0.004768
0.001661 -0.026436 0.007397
0.013596 0.022763 0.004982
-0.018118 0.017948 0.005142
0.016856 -0.020270 0.004439
0.025933 -0.002797 0.005772
-0.006950 0.024660 0.002474
0.016975 0.020375 0.004704
0.017919 -0.019214 0.006561
-0.009795 0.023600 0.005681
-0.001941 0.025810 0.002421
0.026048 0.001562 0.005491
-0.005165 -0.026020 0.004984
0.016382 0.020808 0.007587
0.026102 0.001342 0.001498
0.007284 -0.025309 0.001768
0.003907 -0.026173 0.004089
0.025878 -0.003893 0.002477
-0.009101 0.023842 0.001826
-0.025049 0.005967 0.005014
0.000061 -0.026308 0.001693
0.002200 -0.026248 0.002404
0.004679 -0.025910 0.001989
-0.004924 0.025262 0.006094
-0.020478 -0.016279 0.002445
-0.009302 0.023786 0.003752
-0.011212 -0.012188 0.049459
0.000150 -0.013798 0.054534
0.001814 0.016535 0.049134
0.006492 0.011712 0.054996
0.015018 0.000176 0.051925
-0.011494 -0.005641 0.055845
0.009011 0.004265 0.059248
-0.004630 -0.005862 0.061597
-0.008127 -0.004773 0.059884
-0.002967 0.018960 0.042717
0.002145 -0.018312 0.045314
-0.018765 0.002959 0.042708
0.011662 -0.013695 0.045924
-0.009595 0.021021 0.028928
-0.008921 0.012184 0.051856
-0.000781 -0.016249 0.050267
0.005441 -0.002732 0.062587
0.011424 -0.010557 0.051150
-0.016363 -0.009161 0.043965
-0.000223 0.008920 0.060373
0.012724 0.003739 0.054947
-0.004458 0.024096 0.022433
0.013346 0.020131 0.026632
0.003128 0.020201 0.039433
0.021322 -0.001732 0.035843
0.006202 0.014548 0.050726
0.020098 0.008516 0.034772
-0.021198 -0.000626 0.036714
0.013314 0.016298 0.037832
-0.005540 0.012624 0.054273
-0.011089 -0.001032 0.057944
0.007402 -0.017347 0.043861
-0.000458 -0.009994 0.059449
0.001004 -0.025869 0.021387
0.005226 -0.012282 0.055071
0.019030 0.016672 0.020643
-0.016702 -0.002146 0.048367
-0.007033 0.004684 0.060690
0.017970 -0.010575 0.038249
0.010036 0.008134 0.055581
0.010624 0.011673 0.050671
0.013592 -0.004812 0.053022
0.006860 -0.006863 0.059572
0.004899 -0.021127 0.036347
-0.004034 -0.021373 0.036783
0.014756 0.008238 0.048296
-0.007565 0.016932 0.044424
0.013342 0.012753 0.044617
-0.007227 0.018872 0.039682
0.020106 -0.000237 0.039932
-0.013333 0.013761 0.042614
0.018978 0.003952 0.041929
-0.014562 0.009418 0.047038
0.000601 0.023085 0.029911
0.021939 0.006168 0.031079
0.018982 -0.011781 0.033433
0.003180 0.006126 0.062009
0.012107 -0.015627 0.041452
0.019030 0.007681 0.038960
-0.016490 -0.005948 0.046911
-0.009933 -0.014964 0.046556
0.012547 -0.017117 0.037341
-0.003916 -0.025847 0.021076
-0.018408 -0.008495 0.040170
0.016529 -0.002676 0.048460
-0.001441 0.017580 0.046812
0.000623 0.024288 0.024488
0.015071 0.004439 0.050605
-0.007627 -0.025025 0.022123
0.017609 0.011527 0.037465
-0.019905 -0.015351 0.025613
0.003715 -0.019842 0.040650
-0.001429 -0.024119 0.029335
-0.016069 0.012529 0.039096
-0.014136 -0.015423 0.039063
-0.013924 0.003225 0.053122
-0.009210 0.009366 0.055195
0.007190 0.018029 0.042328
0.009151 -0.020051 0.034998
-0.001478 0.014942 0.052168
-0.019562 0.001689 0.041289
-0.024293 -0.008331 0.019442
-0.000636 0.001057 0.064257
-0.013341 -0.011851 0.046458
-0.003065 0.022034 0.032872
-0.018688 -0.018086 0.022276
0.017242 0.006063 0.044906
0.012896 -0.018459 0.033175
-0.015328 0.018723 0.023036
-0.015373 0.016569 0.031189
-0.012089 0.018859 0.031836
-0.007890 0.022574 0.025053
0.016034 0.019304 0.022186
0.019557 -0.005093 0.039652
-0.003893 0.006462 0.061461
0.009393 0.021369 0.029797
-0.002732 -0.022873 0.032892
0.012628 0.021637 0.022554
-0.016468 -0.011910 0.040358
-0.008181 -0.020244 0.036872
0.017460 -0.008157 0.042191
-0.005861 -0.026013 0.017122
-0.001310 0.012272 0.056440
0.007072 -0.023128 0.028143
0.001547 0.021882 0.034383
-0.021389 -0.014783 0.020662
0.006915 0.022394 0.029419
0.003191 -0.026072 0.017705
0.021582 0.013549 0.018402
-0.023543 -0.003990 0.027763
0.015081 -0.014050 0.039009
0.020482 0.013631 0.023969
0.014864 0.015171 0.036962
0.009047 0.023569 0.020532
-0.000745 0.025086 0.019337
-0.012845 0.002289 0.055184
-0.022561 -0.002004 0.032311
0.005728 -0.022267 0.032262
0.000305 -0.021598 0.036907
-0.020589 -0.009645 0.033086
-0.016897 0.006209 0.045230
-0.016708 -0.014613 0.035227
-0.004137 0.002614 0.063329
-0.007061 0.020305 0.035325
0.022061 -0.006645 0.030270
-0.022982 -0.012193 0.018512
0.019219 0.013537 0.028778
-0.007145 0.023915 0.017809
0.021070 0.007522 0.032937
0.002607 -0.023897 0.029213
-0.005385 -0.023731 0.029292
-0.008739 -0.022884 0.028934
-0.009267 0.006261 0.057815
0.015015 -0.009610 0.046091
0.004822 0.017250 0.046280
0.002700 0.011515 0.057172
-0.002838 -0.018648 0.044336
-0.018847 0.005605 0.041064
-0.023593 -0.005525 0.026816
-0.009693 -0.024374 0.022583
0.002397 -0.007112 0.061572
-0.024752 0.002028 0.022450
0.009283 -0.023808 0.021225
-0.018788 -0.014978 0.029478
-0.012997 0.017623 0.033743
0.014503 0.017185 0.033070
-0.005342 -0.019702 0.040451
0.021266 -0.010244 0.028279
-0.000132 -0.025143 0.025543
0.017258 0.015357 0.030785
-0.008260 -0.023792 0.026484
0.005115 0.024197 0.022886
0.024043 -0.006095 0.022053
0.022407 0.001199 0.032167
-0.017350 -0.014899 0.033237
0.017313 -0.004884 0.045405
0.008409 -0.023292 0.025644
0.012683 0.022469 0.017354
-0.014341 -0.021035 0.026086
0.006119 0.020942 0.035157
0.010818 0.015858 0.042773
0.024034 0.002676 0.024962
-0.007339 -0.017572 0.043984
0.004079 0.025367 0.015030
-0.012730 0.016173 0.038318
-0.024717 -0.006106 0.020635
-0.017796 0.017714 0.015828
-0.020777 -0.010547 0.031269
0.022503 -0.012077 0.017599
-0.017135 -0.020005 0.020674
0.020155 -0.010078 0.032390
-0.021179 0.009432 0.029280
-0.021636 -0.015080 0.015962
0.016950 0.019383 0.016971
-0.018128 0.016669 0.020552
0.005084 -0.025155 0.021758
-0.012358 0.021211 0.020226
-0.023948 -0.007690 0.023260
-0.015051 0.006321 0.049219
0.010570 0.019148 0.035334
-0.000453 0.025812 0.010030
-0.012758 0.021472 0.015895
0.010565 0.023760 0.013707
0.021141 -0.014503 0.017047
-0.021180 0.006005 0.034033
0.018470 -0.001077 0.044047
-0.014478 -0.005714 0.051109
-0.020736 0.011940 0.025608
-0.011878 -0.024040 0.014571
0.010492 0.017495 0.039647
-0.021684 0.012528 0.017850
0.018056 -0.013625 0.032348
0.017805 -0.015536 0.029060
-0.025036 -0.001461 0.021516
0.019594 -0.016536 0.018086
0.016771 0.019863 0.014696
-0.007835 0.023873 0.015555
-0.009582 0.002453 0.059278
-0.025651 -0.002782 0.014343
-0.021515 0.002895 0.034949
-0.014697 0.020356 0.014098
-0.023731 0.003860 0.025903
0.024708 0.007142 0.014177
0.023526 -0.007624 0.022829
0.023771 0.007842 0.020755
0.014807 0.013275 0.040979
0.010974 -0.023021 0.021071
-0.016255 0.001545 0.049365
0.002635 0.025330 0.016852
-0.011632 0.005563 0.055497
-0.008726 -0.025274 0.013593
-0.023448 0.008297 0.020476
-0.016217 -0.021177 0.017280
-0.025524 -0.002929 0.016270
-0.020206 0.008581 0.033971
-0.025447 0.001553 0.016446
-0.020861 -0.016259 0.014775
0.009923 -0.023835 0.018736
0.001791 0.025863 0.008623
0.025091 0.005063 0.015843
-0.021961 0.004510 0.032340
-0.025391 -0.005147 0.012788
-0.020195 0.010185 0.031516
0.024374 0.007494 0.016755
0.020407 0.016223 0.012168
0.008956 0.024679 0.008842
-0.004754 0.025039 0.012637
0.024749 0.008933 0.003883
-0.019484 0.015198 0.020510
0.025166 0.003635 0.017002
-0.019753 0.013832 0.024748
0.007491 0.025178 0.007060
-0.022954 0.010533 0.016782
0.005826 0.025527 0.005131
-0.014173 -0.018614 0.032236
-0.022196 0.007208 0.028727
-0.022014 0.012313 0.015883
0.015393 -0.020614 0.018191
0.015610 0.020647 0.016176
-0.024996 -0.007227 0.014530
-0.024236 -0.009669 0.013582
0.024231 -0.008148 0.016650
-0.003936 0.025383 0.008346
-0.024357 -0.001014 0.025193
-0.025099 0.002944 0.018495
-0.012514 0.021792 0.013523
-0.017775 0.013350 0.032847
-0.025106 0.003754 0.016599
-0.024110 0.007754 0.016330
0.025292 -0.001589 0.017228
-0.025606 -0.000855 0.015400
0.000581 -0.026437 0.014933
-0.019268 -0.018255 0.015236
-0.019016 0.011123 0.033503
-0.023378 -0.011943 0.013732
0.022888 0.013097 0.004456
-0.022042 -0.014405 0.014414
0.018987 0.011971 0.032882
0.013812 0.022141 0.013373
0.004724 -0.025842 0.016114
-0.008332 0.023848 0.013365
0.024411 -0.006038 0.019670
0.013681 -0.021946 0.016994
-0.016376 0.019011 0.014950
-0.010525 -0.024740 0.013246
0.022042 -0.014258 0.002432
-0.006108 0.024615 0.014189
-0.011103 -0.024378 0.009867
-0.024692 -0.008358 0.005327
-0.017595 -0.020048 0.014329
-0.008912 -0.025164 0.009471
0.025417 0.002871 0.014977
0.023480 -0.009752 0.018293
0.024049 -0.009503 0.013751
-0.022422 -0.013760 0.011886
0.025625 0.000711 0.014360
-0.021568 -0.015328 0.010282
0.024714 -0.006017 0.017217
-0.012562 0.021918 0.010890
-0.025560 0.001677 0.014608
0.008471 -0.024707 0.016961
-0.020836 -0.016267 0.008484
-0.019182 0.016340 0.014408
-0.021591 0.013151 0.014528
0.019813 -0.016612 0.015732
0.024248 -0.008651 0.015067
-0.025255 -0.006461 0.010962
-0.019671 -0.017606 0.006721
0.025533 -0.001221 0.015011
0.018957 0.017985 0.011945
0.007039 -0.025279 0.015290
0.023735 -0.010753 0.009572
-0.006296 -0.025973 0.009985
0.025708 -0.002108 0.011848
0.023534 0.011224 0.010018
-0.020467 -0.016775 0.010928
0.025293 -0.003855 0.015616
0.014723 -0.021546 0.013168
-0.023920 0.008749 0.013058
-0.025421 -0.005490 0.008852
-0.024816 0.005638 0.015235
0.025600 0.004571 0.010804
-0.024646 0.005811 0.017044
0.022341 -0.012899 0.015523
-0.007598 0.024319 0.009595
-0.025654 -0.003836 0.005177
0.006611 0.025393 0.002285
-0.024556 -0.008894 0.008823
0.021284 -0.014889 0.012526
-0.005420 0.025185 0.003802
0.025739 0.002504 0.010980
0.022984 -0.011835 0.013632
-0.024884 0.005909 0.012965
0.016929 -0.019483 0.016799
-0.025109 -0.007239 0.009471
-0.025786 -0.002453 0.012026
0.002391 0.025938 0.005946
-0.001163 -0.026602 0.013381
0.012672 -0.023019 0.012074
0.024278 0.010117 0.002076
0.021791 0.014412 0.010666
-0.025670 -0.003103 0.001649
-0.022904 -0.012881 0.009316
0.022133 -0.013570 0.013542
0.011514 0.023690 0.009227
-0.007011 -0.025702 0.007862
-0.003074 0.025611 0.004473
-0.021294 -0.015629 0.006633
-0.002021 0.025774 0.006656
-0.013076 -0.023244 0.008046
-0.024441 0.007293 0.014205
-0.025812 -0.000236 0.003659
-0.016311 -0.020960 0.007145
0.012532 -0.022836 0.016062
0.014182 -0.021778 0.015114
-0.010298 0.023101 0.012582
0.024954 -0.006950 0.011294
0.025933 0.003599 0.002215
0.025749 -0.000654 0.012798
-0.025604 -0.004277 0.006973
0.023443 -0.011636 0.006279
-0.005341 0.025055 0.010358
0.025450 0.004358 0.013244
-0.025279 -0.006285 0.005266
0.024685 -0.007456 0.013387
0.022602 -0.012994 0.011338
-0.016489 -0.020917 0.009350
-0.023678 0.009116 0.014737
0.024668 0.009103 0.005971
-0.001082 0.025877 0.008428
0.014776 -0.021625 0.011211
0.015667 -0.021101 0.009391
0.025607 0.002315 0.013116
-0.025748 0.001429 0.010182
-0.025646 -0.003604 0.003398
0.023816 -0.010316 0.011734
-0.023812 -0.011096 0.011004
-0.008812 0.023775 0.011575
-0.010643 -0.024382 0.004972
0.015098 0.021412 0.011761
-0.023446 0.010315 0.001802
-0.023858 0.009411 0.004836
0.025889 0.003933 0.004755
-0.023869 0.009307 0.008476
-0.023858 0.009409 0.006510
0.022831 -0.012792 0.008575
-0.023844 -0.010995 0.008275
-0.019854 0.016024 0.004085
-0.022917 0.011420 0.010014
-0.019850 0.015970 0.001579
-0.025744 0.001336 0.002142
0.013339 -0.022721 0.002555
-0.025778 -0.001062 0.001782
-0.008362 -0.025139 0.004848
0.011699 0.023783 0.001615
0.020120 -0.016620 0.011764
-0.025738 0.000166 0.011684
0.021715 0.014731 0.008287
-0.025869 -0.001869 0.004705
-0.021118 0.014392 0.002649
0.017091 -0.020000 0.001833
-0.013773 -0.022415 0.001951
0.011671 0.023789 0.003998
-0.023329 0.010752 0.005534
-0.025889 -0.002064 0.006528
0.010512 -0.023781 0.016562
0.011088 -0.023633 0.014958
-0.023705 0.009521 0.011029
0.005797 -0.025658 0.014106
-0.018847 -0.018400 0.004132
-0.025553 0.003344 0.003570
0.019624 0.017466 0.010310
-0.019421 0.016233 0.012479
0.007799 -0.025177 0.013182
-0.025834 -0.000300 0.008286
-0.014577 -0.022323 0.006087
0.024582 -0.008660 0.009987
0.026137 -0.000722 0.002427
0.002051 0.025950 0.001873
-0.023917 -0.010449 0.003959
0.024512 0.009302 0.008310
-0.025328 -0.005284 0.001949
0.024400 -0.009510 0.007498
-0.022876 -0.012852 0.006828
0.023679 -0.011190 0.004035
-0.001794 -0.026454 0.005006
0.016428 -0.020229 0.014502
0.025962 -0.000098 0.010151
-0.011073 0.022926 0.004504
0.024445 0.009079 0.010947
0.018054 -0.018570 0.014989
0.022576 -0.013483 0.006408
-0.006569 -0.025490 0.001645
-0.003830 -0.026304 0.008540
0.025843 0.002544 0.009052
-0.023880 -0.010776 0.006081
-0.010108 0.023347 0.010018
-0.004491 0.025343 0.002157
0.012952 0.023043 0.008892
0.009157 -0.024525 0.015075
0.020403 -0.016026 0.013657
-0.015558 -0.021143 0.001917
-0.016051 -0.021038 0.005082
0.025857 0.003480 0.007129
0.017272 -0.019751 0.009390
0.025569 0.005227 0.008542
0.011479 -0.023711 0.002385
-0.024793 0.007025 0.007569
0.013231 -0.022738 0.009957
0.025466 -0.005291 0.009864
-0.005561 -0.026062 0.007282
-0.007175 0.024584 0.005506
0.012493 -0.023294 0.007951
0.008161 0.025107 0.004464
0.025956 -0.001774 0.007580
-0.016617 0.019241 0.006667
-0.025539 0.003137 0.010698
0.025431 -0.004773 0.012637
-0.025816 -0.002806 0.008529
-0.022948 0.011077 0.013723
0.006771 -0.000392 0.062039
0.013297 -0.000696 0.054810
0.008529 -0.012018 0.052684
-0.009721 -0.007454 0.056657
0.009587 -0.012514 0.050839
0.003332 -0.016491 0.048887
0.005738 0.005176 0.061339
0.003485 -0.013877 0.053592
0.012440 0.001281 0.056028
0.010013 -0.013743 0.048266
-0.000905 0.016437 0.049459
0.012334 -0.004847 0.054987
-0.003798 0.017537 0.046083
-0.007585 0.014855 0.048743
-0.009167 -0.011672 0.052687
0.013607 0.008976 0.049550
-0.008060 -0.007016 0.058584
-0.017587 -0.002518 0.046186
0.001836 0.003968 0.063586
-0.003482 -0.015795 0.050536
-0.009176 -0.009712 0.055165
-0.005515 0.013939 0.052162
-0.020003 -0.002048 0.040167
0.010920 -0.009195 0.053432
0.002739 -0.000930 0.064003
-0.019577 -0.004518 0.040282
0.007675 -0.002687 0.060965
-0.007894 0.013552 0.050770
0.006072 0.015905 0.048289
-0.009348 0.014610 0.047330
-0.017522 -0.006938 0.043593
0.016186 0.001213 0.049458
-0.007236 0.022072 0.028426
0.008333 -0.004788 0.059644
-0.007248 0.015951 0.046963
-0.005461 0.017987 0.043702
0.007108 0.003628 0.061101
-0.002909 -0.009937 0.059071
0.002723 0.017508 0.046777
-0.013801 0.011535 0.045485
-0.008472 -0.014730 0.048651
0.019873 0.003701 0.039782
0.000006 -0.006850 0.062103
-0.017340 -0.005141 0.045585
-0.016870 -0.012868 0.037983
-0.000708 -0.004918 0.063369
0.020398 0.001180 0.038895
-0.004211 0.023684 0.025022
-0.013085 -0.003535 0.054650
0.008385 0.011559 0.053469
0.007839 0.008088 0.057811
0.010167 0.009689 0.053825
-0.002492 0.023660 0.026523
-0.002412 -0.025549 0.023726
-0.011092 0.012692 0.048292
0.000436 -0.019500 0.042546
-0.011916 0.010763 0.049879
0.002926 0.008344 0.060461
-0.007281 0.002146 0.061380
0.009272 -0.015518 0.045806
0.011161 0.014103 0.046022
-0.011369 0.014901 0.043638
0.015470 0.010807 0.043409
0.013549 0.010292 0.048047
0.021176 0.000576 0.036606
-0.021841 -0.005980 0.032911
0.019463 -0.008613 0.036601
0.000438 -0.012426 0.056500
0.005656 -0.018690 0.042361
0.001183 0.001356 0.064205
-0.002908 0.009386 0.059440
-0.002289 0.024182 0.024100
0.006990 0.006036 0.060062
0.016952 -0.000180 0.048003
-0.011905 0.019608 0.029453
0.004887 -0.000296 0.063319
0.013665 -0.012611 0.044276
-0.006571 -0.025593 0.019994
0.006229 0.010262 0.056915
-0.005826 -0.015791 0.049095
-0.000445 0.019126 0.043071
0.009827 0.006074 0.057447
-0.019700 -0.008190 0.037062
-0.006469 -0.004745 0.061148
0.000418 0.015660 0.051001
0.011195 0.003502 0.057140
0.018299 0.016786 0.023298
-0.001780 -0.017859 0.046606
-0.011990 -0.014265 0.044590
0.018044 0.006694 0.042461
-0.012803 -0.001380 0.055596
0.021185 -0.004350 0.035360
0.016458 0.005364 0.047249
0.014366 -0.002029 0.052805
0.012797 -0.008237 0.051679
-0.021910 -0.003637 0.033811
-0.018388 -0.000367 0.044441
0.015289 -0.003843 0.050426
0.016914 -0.013059 0.036564
-0.003366 0.019716 0.040406
-0.009402 -0.013062 0.050428
-0.004730 0.024552 0.018579
-0.003607 0.015373 0.050758
-0.006512 0.006819 0.059831
0.009980 -0.016329 0.043051
-0.013174 -0.009211 0.050298
-0.012886 -0.006007 0.053620
0.004695 -0.017936 0.044838
0.003294 -0.008847 0.059918
0.000338 0.023686 0.027363
-0.015579 0.009575 0.044612
0.019043 -0.007636 0.039019
-0.013507 -0.007364 0.051546
-0.015669 -0.002022 0.050513
-0.015105 -0.011555 0.043507
-0.003479 0.022556 0.030589
0.000277 0.020487 0.039058
-0.010677 0.010714 0.051805
-0.019333 -0.000773 0.042000
-0.009393 -0.000979 0.059813
-0.003369 0.011045 0.057451
0.018890 0.001282 0.042931
-0.012921 0.019670 0.026876
0.011137 0.021685 0.025954
-0.005599 0.000883 0.062862
0.013868 0.001584 0.053768
0.013225 -0.011598 0.046884
0.007617 -0.008427 0.057708
-0.001356 -0.008452 0.060769
0.005342 -0.013353 0.053408
-0.001985 0.023167 0.029077
0.017331 0.010404 0.040025
-0.021265 -0.002922 0.036123
-0.007415 -0.016321 0.046709
0.000813 -0.017741 0.046919
0.006613 -0.020086 0.038056
-0.000598 0.024727 0.022001
-0.005492 -0.021839 0.034795
-0.019308 -0.006801 0.039383
-0.007888 0.007568 0.058143
-0.020293 0.000005 0.039395
0.011929 -0.011511 0.049045
0.002193 -0.020794 0.038833
0.019667 0.001560 0.040841
0.014560 -0.016812 0.034065
0.011490 0.005888 0.055524
0.014656 0.019837 0.024449
-0.001121 -0.022383 0.034879
0.015856 0.018152 0.026793
-0.013394 0.005704 0.052662
-0.000217 -0.026225 0.019202
0.020570 -0.003595 0.037833
0.011850 0.007742 0.053585
-0.023594 -0.009911 0.021185
-0.014990 0.011629 0.042952
-0.018518 -0.006704 0.041409
-0.015322 -0.008945 0.046546
0.004174 0.015715 0.049874
0.010160 -0.017339 0.040624
0.008639 0.013054 0.050985
0.013376 0.013952 0.042330
-0.010853 0.008910 0.053649
-0.014266 -0.016486 0.036681
0.020318 0.006376 0.036392
0.008041 0.016675 0.044683
0.020904 0.013861 0.021190
0.002378 0.023868 0.026399
0.003236 -0.022157 0.034598
0.013885 -0.009743 0.048103
-0.001035 0.010745 0.058406
-0.003299 0.016622 0.048351
-0.000169 -0.018674 0.044761
0.005085 0.018634 0.042626
0.008316 0.010022 0.055492
0.002301 0.015236 0.051610
0.021533 0.005261 0.033393
0.003247 -0.003180 0.063499
-0.002378 -0.020826 0.038810
0.020080 -0.006251 0.037298
-0.011519 -0.003256 0.056935
0.012035 -0.014590 0.043607
0.019488 0.016688 0.017702
0.000564 0.013195 0.055221
0.010763 -0.018740 0.036303
0.019351 0.014933 0.024854
-0.015680 -0.004005 0.049848
-0.016139 0.016524 0.029191
-0.014622 -0.010807 0.045682
-0.011959 0.015357 0.041653
-0.003098 -0.016896 0.048417
0.016481 -0.008720 0.043856
0.015975 0.003703 0.049200
-0.012979 0.010996 0.047850
0.006182 -0.019388 0.040257
0.002800 -0.019188 0.042877
-0.005112 0.019043 0.041222
0.019737 0.005926 0.038530
0.018169 0.002985 0.044466
-0.001374 -0.026028 0.021485
-0.002540 -0.026219 0.018744
0.002212 -0.025401 0.023557
-0.003468 0.012449 0.055589
0.011756 0.009874 0.051544
0.001778 -0.010088 0.059129
0.001508 0.010314 0.058887
-0.000298 0.021397 0.036175
0.008031 -0.018012 0.041633
0.017532 -0.002111 0.046238
0.021769 -0.004686 0.033134
0.013684 -0.013867 0.041950
0.019839 0.015079 0.022289
-0.005532 0.011099 0.056288
-0.022884 -0.011927 0.020638
0.012663 0.018220 0.034073
0.010437 -0.018083 0.038500
0.002983 0.024340 0.024059
0.013023 0.005783 0.053356
-0.011049 -0.007417 0.055116
0.004503 0.013003 0.054455
-0.021814 -0.012106 0.025408
0.011556 0.019369 0.032877
-0.007662 -0.021099 0.035040
0.013923 -0.008263 0.049798
0.005465 -0.008573 0.059123
0.000838 0.018270 0.045214
0.004056 -0.005213 0.062194
-0.000838 0.022147 0.033675
-0.006646 0.023232 0.023965
0.002282 0.021137 0.036786
0.014150 -0.016260 0.036218
-0.021892 0.000632 0.034409
-0.021939 -0.001541 0.034421
-0.008838 -0.016396 0.044786
-0.013458 0.014707 0.040426
0.018155 0.012140 0.034886
0.001565 0.022517 0.032030
-0.005936 0.022123 0.030115
0.010071 0.015489 0.044653
-0.002885 -0.024542 0.027383
-0.002653 0.021419 0.035296
-0.001254 0.022680 0.031488
0.008223 0.020181 0.035255
0.007461 -0.021313 0.033615
-0.018894 0.001198 0.043040
0.012948 0.021018 0.024325
-0.004025 -0.001529 0.063633
-0.001439 -0.002649 0.064034
-0.021403 -0.013513 0.024202
-0.004472 0.007634 0.060380
0.017040 0.013255 0.035756
-0.007413 0.011042 0.055000
0.004558 0.020693 0.036997
-0.018693 -0.018572 0.019778
0.014381 -0.006338 0.050588
0.004051 -0.025685 0.019905
0.010725 0.022341 0.023790
-0.013777 0.008731 0.049302
0.018969 0.006273 0.040381
0.014672 0.012420 0.042678
-0.015100 0.007633 0.048038
0.021652 0.002709 0.034486
0.011403 -0.019871 0.032062
0.015268 -0.010694 0.043954
0.014048 0.004048 0.052646
0.019333 -0.000539 0.041923
-0.011993 0.006610 0.054193
0.009066 0.023165 0.022891
0.004229 0.009993 0.058363
-0.004970 0.021381 0.034162
-0.003454 0.013921 0.053360
-0.022802 -0.009820 0.025395
-0.007606 0.017981 0.041819
0.008003 0.014597 0.049115
-0.005197 -0.018387 0.043772
0.019733 -0.009656 0.034376
-0.010638 0.007458 0.055366
0.018803 0.014734 0.027338
-0.012353 -0.010927 0.049447
-0.012201 -0.016389 0.040313
0.001885 0.023440 0.028322
0.001158 -0.024524 0.027397
-0.015288 -0.013834 0.039578
-0.004202 -0.019304 0.042251
0.001610 -0.005106 0.062996
0.000207 -0.023516 0.031117
0.008856 -0.019366 0.037278
0.016690 -0.011142 0.040314
-0.002404 0.007697 0.061055
-0.023135 -0.005719 0.028469
0.023152 0.004593 0.027974
0.006800 0.024050 0.021808
-0.003006 0.024624 0.020465
-0.015639 -0.005793 0.048821
0.004306 -0.020484 0.038572
0.002513 -0.012852 0.055527
-0.014462 -0.003863 0.052219
-0.000637 0.007005 0.061909
0.001602 0.024713 0.021943
-0.014036 0.006747 0.050883
-0.018005 -0.018326 0.024306
-0.009881 -0.005179 0.057995
0.002700 -0.021484 0.036788
-0.017697 0.006647 0.042885
-0.010967 0.020697 0.027123
0.000259 -0.000698 0.064298
0.016750 0.018132 0.023997
0.016723 0.019134 0.019752
0.019841 0.013644 0.026384
-0.009047 -0.024888 0.020098
-0.008525 0.021970 0.026843
0.003803 0.021502 0.034918
0.004860 -0.007024 0.060687
0.015269 0.005996 0.049313
-0.002615 0.024989 0.017941
0.001437 -0.020103 0.040815
-0.013900 0.019537 0.024353
-0.007592 0.009446 0.056627
0.020833 0.014931 0.016835
0.016386 -0.007410 0.045506
-0.014863 0.012995 0.040819
0.010486 0.018307 0.037689
-0.005687 0.003485 0.062129
0.004397 0.014347 0.052331
-0.011951 -0.013337 0.046469
0.004346 -0.023077 0.030802
0.017713 -0.009002 0.040708
0.016184 -0.012882 0.038697
0.005842 0.019785 0.038933
0.016583 -0.009990 0.042233
-0.004411 -0.026067 0.018399
0.002795 0.022907 0.030435
-0.010058 -0.020140 0.034955
0.017917 0.000694 0.045584
0.018109 -0.003064 0.044542
-0.018642 -0.016994 0.025552
-0.015300 0.019185 0.020457
0.021969 -0.000102 0.034100
0.000814 -0.008618 0.060664
-0.010437 -0.015900 0.043888
-0.015528 0.000333 0.050930
0.001069 -0.022269 0.034829
0.022238 -0.008729 0.027221
0.007035 -0.020712 0.035838
-0.010735 -0.024610 0.016675
0.002605 0.012603 0.055749
0.020798 -0.013426 0.023586
0.015162 0.002568 0.051340
0.022304 0.003481 0.031912
0.003929 0.016655 0.048080
0.021130 -0.008682 0.031282
-0.020216 -0.016736 0.018976
0.006706 0.023576 0.024533
-0.004821 -0.022644 0.032908
-0.006780 -0.019987 0.038621
-0.020958 0.001804 0.037332
0.000315 -0.025562 0.023593
-0.010493 0.021760 0.023356
0.014308 0.007458 0.049830
-0.019754 0.004827 0.039270
-0.001922 0.018359 0.044716
0.011872 0.014624 0.043813
-0.022463 -0.004208 0.031615
0.014760 -0.017478 0.031895
-0.008807 0.001118 0.060306
0.006494 0.013109 0.052923
-0.009426 0.019287 0.035347
-0.023033 -0.004188 0.029609
-0.016600 0.007885 0.044473
-0.015396 -0.015053 0.037305
0.001265 -0.026278 0.017079
-0.003975 -0.023313 0.031103
0.009074 0.023936 0.017734
-0.016568 -0.007127 0.045753
-0.007194 0.023386 0.021845
0.015806 -0.001325 0.050196
-0.006719 0.022734 0.026306
-0.008997 -0.021345 0.033295
0.004441 0.011600 0.056387
-0.011219 -0.010875 0.051270
-0.013494 0.000984 0.054527
0.003733 0.022078 0.032997
-0.019721 -0.009941 0.035132
0.009228 0.020396 0.033339
-0.020877 -0.015055 0.022959
-0.004504 -0.024355 0.027480
-0.016070 0.013581 0.036861
0.012250 -0.016421 0.039498
-0.020141 0.002540 0.039369
-0.016066 0.006126 0.047265
-0.015820 0.007853 0.046301
-0.016234 0.011282 0.040852
0.004943 0.023666 0.025733
0.023276 -0.004599 0.027535
-0.000490 0.002985 0.064012
-0.012775 0.017116 0.035663
-0.003300 -0.020050 0.040584
0.011088 -0.019373 0.034107
-0.022412 -0.007775 0.029133
0.011367 0.021034 0.028100
0.008979 0.019210 0.037215
-0.001854 -0.019480 0.042512
0.015457 -0.014444 0.037400
-0.023044 -0.002243 0.030509
0.015808 -0.005229 0.048645
0.021738 0.012097 0.022381
-0.018208 0.007734 0.040702
0.022539 -0.006649 0.028416
0.013708 -0.015704 0.038383
-0.006048 -0.020901 0.036833
-0.007830 -0.019041 0.040147
-0.004687 -0.020546 0.038829
0.006666 -0.024341 0.023854
0.017480 0.018029 0.021491
0.021454 -0.006811 0.032304
-0.001398 0.013585 0.054504
0.022364 -0.000898 0.032423
-0.003671 -0.026274 0.016244
-0.019236 0.006368 0.039404
-0.003738 0.000850 0.063740
0.020689 -0.008520 0.032996
-0.008605 -0.018033 0.041542
-0.009185 0.010727 0.053563
-0.017464 -0.011246 0.038960
-0.013536 -0.012517 0.044991
-0.006900 -0.023750 0.027847
0.015963 0.011379 0.041504
-0.021922 -0.009294 0.029139
-0.021550 -0.008198 0.031537
-0.002405 0.003883 0.063420
-0.014217 0.020179 0.019242
-0.005819 -0.025198 0.023854
-0.012550 -0.019267 0.033871
-0.000497 -0.022997 0.032952
0.018280 0.009664 0.038491
-0.012117 0.020962 0.022751
-0.010042 0.012309 0.050284
0.019316 0.010495 0.034367
0.012740 -0.017786 0.035275
-0.011408 -0.024116 0.018817
-0.021544 -0.015001 0.018057
-0.016562 -0.000002 0.048821
-0.006290 0.023932 0.020305
-0.019275 0.003792 0.041025
0.023671 0.004603 0.025758
-0.001695 -0.021605 0.036888
-0.004064 0.004714 0.062474
-0.009313 0.007689 0.056651
0.010871 0.022673 0.021719
-0.015264 0.002556 0.050951
0.005524 0.021652 0.033203
0.012786 0.019815 0.028983
-0.009766 0.016544 0.042459
0.003720 -0.024217 0.027458
-0.015982 -0.016449 0.033528
-0.003373 -0.022135 0.034874
0.014152 0.020632 0.022447
0.007266 0.021101 0.033639
-0.017692 -0.016180 0.029845
-0.004208 -0.025494 0.023177
-0.013937 0.020037 0.021598
-0.024094 -0.008094 0.021632
0.017429 -0.006696 0.043814
0.003778 -0.022654 0.032640
0.019465 0.008115 0.037197
0.007138 0.018898 0.040172
0.019356 -0.015799 0.022650
0.005387 -0.021745 0.034207
-0.010385 0.000680 0.058742
0.016454 -0.015482 0.032699
-0.016721 0.018226 0.019635
0.023586 -0.005126 0.025646
0.016765 -0.004247 0.047146
-0.007483 0.021327 0.031086
-0.015400 -0.016118 0.035412
0.018048 0.018048 0.018485
0.011667 -0.020895 0.028431
-0.017230 -0.020146 0.018821
0.012638 -0.019724 0.029995
-0.009375 0.017654 0.040198
-0.018445 -0.016257 0.027680
-0.020811 -0.007694 0.034378
0.006626 0.024885 0.015060
0.007778 0.021422 0.031840
0.013234 0.018500 0.032105
-0.020875 -0.013011 0.026930
-0.023719 0.001199 0.027547
-0.010985 -0.022436 0.027449
0.021691 -0.008667 0.029375
-0.017648 -0.008570 0.041898
-0.020088 -0.013349 0.028832
0.002990 -0.025643 0.021744
-0.022244 -0.013410 0.019500
0.008294 -0.021582 0.031581
0.009475 -0.020670 0.032719
0.021939 -0.002356 0.033621
-0.023424 -0.008375 0.024707
-0.024444 -0.006598 0.022196
0.016021 0.012585 0.039493
-0.021413 0.001286 0.035905
0.014341 0.018865 0.028662
0.021838 -0.012117 0.022118
-0.014529 0.014485 0.038695
0.024254 -0.009964 0.002730
0.006727 0.024695 0.016911
0.018234 -0.004612 0.043276
-0.005347 0.021805 0.032109
-0.006384 -0.018762 0.041922
0.010951 0.023396 0.016110
-0.006687 0.021043 0.033220
0.016432 0.008578 0.044225
-0.016865 0.017149 0.024590
0.016998 0.016455 0.028466
-0.023477 -0.009202 0.023274
-0.014552 -0.007297 0.049800
-0.021938 -0.013392 0.021882
0.001079 0.007403 0.061571
0.010242 0.020525 0.031531
-0.010573 -0.013464 0.048269
0.010962 0.023035 0.019094
0.000643 0.017340 0.047483
0.020619 -0.000816 0.038325
-0.009049 -0.017160 0.042865
0.018399 -0.006613 0.041556
-0.013854 -0.014503 0.041232
-0.014730 0.004747 0.050941
0.000864 0.011923 0.056994
-0.007430 0.012421 0.053006
-0.015682 -0.007352 0.047601
-0.020012 -0.016573 0.021456
-0.016762 -0.016403 0.031718
0.000405 0.014464 0.053159
0.006727 0.024406 0.019398
0.006498 -0.004867 0.060996
0.006306 0.025184 0.011701
0.023463 0.006413 0.024574
-0.017787 -0.012792 0.036065
-0.022641 0.003079 0.030881
0.019952 -0.012468 0.029036
0.014650 -0.018418 0.029737
-0.016838 0.019043 0.001874
0.020672 -0.012872 0.025607
-0.009945 0.021654 0.025408
-0.000336 -0.020908 0.038947
-0.021941 -0.010770 0.027310
0.002000 -0.026004 0.019531
-0.010608 0.022056 0.021164
0.006205 0.017532 0.044585
-0.012120 0.001090 0.056559
0.013635 -0.014862 0.040198
0.000756 -0.024019 0.029296
0.009192 0.021970 0.027851
0.021718 -0.010587 0.025938
-0.013026 -0.017997 0.035736
0.019752 -0.002572 0.040395
0.018149 0.008260 0.040502
-0.008162 0.005546 0.059330
-0.006276 -0.024513 0.025948
0.003796 0.018244 0.044395
0.003282 0.024715 0.021809
0.009192 0.017696 0.041020
0.006849 0.020099 0.037161
0.014838 0.017448 0.031545
-0.000762 -0.024647 0.027521
-0.024912 -0.006719 0.017969
-0.023883 -0.001133 0.027216
0.014176 0.016554 0.035342
0.022157 -0.005142 0.031322
0.017608 -0.015038 0.030749
0.001613 -0.024998 0.025519
0.015853 0.016225 0.032122
0.022800 -0.004499 0.029550
-0.006327 -0.022836 0.031215
0.022856 0.008055 0.025428
-0.008308 0.022713 0.023507
-0.002089 -0.023484 0.031185
0.018838 0.010200 0.036187
0.015988 0.014723 0.035462
-0.018702 -0.011742 0.035206
-0.003355 -0.023922 0.029340
0.012618 -0.020865 0.026376
0.005074 -0.023487 0.028763
-0.011734 -0.023689 0.021184
-0.016404 -0.010694 0.041976
0.013104 0.021730 0.020358
0.018410 0.018106 0.015766
-0.009517 0.004444 0.058622
0.006854 0.016511 0.046278
-0.018551 -0.009386 0.038851
-0.015434 -0.017482 0.032323
0.015555 -0.018408 0.027271
-0.012195 -0.015269 0.042361
0.018488 -0.011342 0.035601
0.020524 -0.012381 0.027323
-0.011700 -0.018807 0.036054
0.022108 0.008798 0.027442
-0.014567 0.020691 0.010322
-0.005859 -0.017434 0.045526
-0.003870 -0.026305 0.014330
0.016020 0.013768 0.037471
0.016336 -0.005935 0.047083
-0.014109 0.020913 0.012557
-0.012830 0.021230 0.017910
-0.016586 0.018025 0.021613
-0.002286 -0.025009 0.025956
-0.014528 0.016258 0.034223
0.015920 0.007579 0.046494
0.006339 -0.022662 0.030451
-0.000846 0.025296 0.017447
0.022617 0.004772 0.029916
-0.010234 -0.019031 0.037384
-0.008758 -0.022113 0.031258
0.020201 0.015255 0.019617
-0.008661 0.020362 0.033200
0.017981 0.004895 0.043814
-0.018396 0.016738 0.018334
-0.002346 0.005860 0.062390
0.014996 0.020468 0.020284
-0.024264 0.003161 0.024078
-0.017144 0.004080 0.046255
0.011803 0.017137 0.038404
0.018905 -0.002700 0.042562
-0.002276 0.001869 0.064023
0.009410 0.016821 0.042751
-0.002088 -0.000093 0.064169
0.012327 0.017539 0.036474
-0.016663 0.018587 0.017098
0.000828 0.025218 0.018063
0.004772 0.024904 0.018374
0.013153 -0.018882 0.031433
0.002069 -0.023393 0.031055
-0.017525 -0.009995 0.040407
0.024185 0.005846 0.021399
-0.017581 0.009415 0.040296
-0.010802 0.022245 0.018952
-0.013710 -0.010356 0.048042
0.023558 -0.006606 0.024027
-0.015910 0.015503 0.032678
-0.020842 0.004894 0.035912
-0.023191 0.002039 0.029561
-0.017293 0.010824 0.038955
-0.023938 -0.006532 0.024898
-0.001193 0.019846 0.040962
-0.003125 -0.026405 0.012207
-0.025227 0.004895 0.009107
-0.012534 -0.023402 0.005633
-0.005562 -0.025540 0.022186
0.018478 0.013522 0.031136
0.014406 0.014570 0.039217
-0.022898 -0.008083 0.027059
0.024581 -0.004610 0.021011
0.013926 0.018575 0.030482
0.004848 -0.025648 0.018176
-0.018253 -0.013247 0.034254
0.014161 -0.020012 0.025616
-0.015199 -0.012652 0.041604
-0.005684 0.024600 0.016312
0.024012 0.001078 0.025617
-0.019057 0.013204 0.029036
0.021147 0.010602 0.027933
0.024401 0.002068 0.023291
-0.016955 -0.019816 0.022581
-0.017926 0.004365 0.044120
0.011376 0.020484 0.029881
-0.004156 -0.017749 0.046146
-0.018540 0.004785 0.042370
0.012412 0.016044 0.040014
0.006902 -0.024684 0.021576
-0.017901 0.016522 0.022534
0.024791 0.000697 0.021529
0.004855 -0.024802 0.024020
-0.010620 -0.016840 0.041707
0.009174 0.018436 0.039148
0.022345 0.006676 0.029058
-0.008475 0.003427 0.060036
-0.019486 -0.016679 0.023589
-0.017939 0.010829 0.037204
0.004934 0.024574 0.020702
-0.012633 0.004444 0.054634
0.005883 -0.025219 0.019620
-0.022342 -0.000027 0.032903
-0.020799 -0.011888 0.029047
-0.002251 0.025232 0.016090
0.022673 0.010173 0.022101
0.000159 0.025951 0.002270
0.017423 0.004523 0.045469
0.001327 0.019688 0.041332
-0.022792 0.009261 0.022314
-0.012304 -0.012012 0.048066
-0.021812 -0.014291 0.001965
-0.024684 -0.002675 0.023570
0.021790 0.010356 0.025857
-0.019360 -0.018020 0.017298
-0.014757 0.020070 0.016759
0.024999 -0.001396 0.019760
-0.007764 -0.025467 0.017412
0.023637 0.002255 0.026922
-0.025736 0.002466 0.008168
-0.018572 0.013323 0.030487
0.008939 -0.022455 0.027715
0.023341 -0.011892 0.002062
-0.005318 0.005669 0.061275
0.023866 -0.002116 0.025986
-0.025297 -0.003028 0.018791
0.021906 -0.011096 0.024146
-0.023204 0.004280 0.027765
-0.016650 -0.004451 0.047666
0.023281 0.012279 0.001824
-0.020634 0.011294 0.027573
-0.010127 -0.018028 0.039781
-0.022335 0.011028 0.020215
-0.024372 -0.008890 0.016422
0.016757 -0.017503 0.026420
0.008920 0.024242 0.015420
-0.024805 -0.007772 0.002890
-0.020473 0.006564 0.035562
0.015159 -0.013189 0.040504
-0.024112 -0.003868 0.025562
-0.004709 -0.025930 0.002468
-0.013125 0.021697 0.008450
-0.012755 -0.023354 0.019403
0.016223 -0.016590 0.030456
0.019424 0.017780 0.008679
-0.018016 0.002097 0.045063
0.000915 0.006012 0.062558
-0.022830 0.000021 0.031142
0.019509 -0.012052 0.031303
0.007072 0.025159 0.009530
-0.008976 -0.025185 0.015806
-0.024159 0.000920 0.025737
0.004966 0.025076 0.016418
-0.008571 -0.019363 0.038673
0.014277 0.005929 0.051209
0.020695 -0.010229 0.030353
0.018887 -0.016903 0.020694
0.008691 -0.023781 0.023006
0.007779 -0.024730 0.019391
0.010668 0.016613 0.041360
-0.001652 -0.026519 0.015137
-0.019512 -0.011639 0.033209
0.020694 0.016399 0.002879
-0.017358 -0.019682 0.002245
-0.019716 0.007948 0.036275
-0.008034 -0.024480 0.024278
0.013054 -0.021279 0.023733
-0.016052 0.003873 0.048825
0.023969 0.008073 0.018903
0.015595 0.015816 0.033842
-0.007155 -0.023110 0.029658
0.023161 -0.002356 0.028960
-0.008557 0.023161 0.019861
-0.013388 -0.022803 0.021290
0.003260 0.019312 0.041887
0.019572 0.017132 0.014315
-0.012005 -0.023194 0.023197
-0.016190 -0.020776 0.003474
-0.020019 0.006077 0.037535
0.017484 -0.013451 0.034342
-0.012859 -0.023479 0.016843
0.014163 -0.022176 0.007655
0.024024 0.005016 0.023562
-0.017008 0.012168 0.037548
-0.023678 -0.010497 0.018803
0.023457 0.011711 0.007049
-0.017952 -0.015051 0.031452
0.020809 0.016159 0.006098
-0.020497 -0.016639 0.016507
0.000051 0.025445 0.015767
0.022485 -0.002722 0.031481
0.012102 0.015403 0.041884
0.024584 0.003309 0.021657
-0.019788 0.011789 0.029553
-0.010235 -0.024832 0.014827
-0.023884 -0.010259 0.001947
-0.025309 -0.005099 0.015120
0.023964 0.010767 0.004387
-0.012950 -0.021250 0.027868
0.013470 -0.019776 0.028013
0.013252 -0.022811 0.006549
0.025472 -0.005949 0.004018
-0.011462 -0.023720 0.002406
0.008848 -0.024844 0.011180
-0.012203 -0.022367 0.025782
-0.023363 0.009012 0.018794
-0.017606 0.012284 0.035603
-0.016198 0.019325 0.012477
-0.024998 0.000572 0.021174
-0.023573 -0.011408 0.016228
0.015949 -0.018755 0.025053
0.025039 -0.006973 0.009639
0.002739 -0.026223 0.016024
-0.013935 0.017369 0.032200
0.018135 0.018618 0.013748
-0.019268 0.016050 0.016341
-0.020997 0.013069 0.020574
0.009516 0.024603 0.002261
-0.011169 0.022275 0.016843
-0.011351 0.016437 0.040328
0.024413 -0.002076 0.023271
-0.025051 -0.006637 0.016207
0.017070 -0.017835 0.024391
-0.025126 0.005085 0.011211
0.010185 -0.021047 0.030493
0.015247 -0.007491 0.047939
-0.022472 -0.013440 0.016641
0.025383 0.001148 0.016635
0.024107 -0.004393 0.024069
0.022891 -0.000573 0.030528
0.000733 0.024972 0.020150
-0.018725 0.008669 0.038435
-0.010805 0.003063 0.057729
-0.010958 0.017353 0.038660
-0.010557 0.005471 0.056887
0.008440 -0.025083 0.008934
0.022234 0.011890 0.019969
-0.025279 0.004798 0.007167
0.024728 -0.002478 0.021169
-0.009334 0.023160 0.017330
-0.017923 -0.019693 0.016854
-0.024131 0.007122 0.018739
-0.010441 0.019404 0.033142
0.010249 -0.024303 0.005752
-0.014005 -0.022893 0.013209
0.012461 0.022930 0.014648
0.005371 0.019167 0.040998
-0.008926 -0.024801 0.002663
-0.006518 -0.025901 0.015569
-0.004326 0.024977 0.014728
0.023692 0.009369 0.017788
-0.010182 -0.023662 0.025054
0.023477 0.007409 0.023199
0.005123 0.022341 0.030989
0.015737 0.020279 0.018309
-0.022512 0.004762 0.030136
0.022977 0.002191 0.029717
0.015744 0.017169 0.029932
-0.023921 0.005087 0.023810
0.005906 0.025149 0.013368
0.013895 0.021890 0.015385
-0.025227 -0.004881 0.016949
0.025836 -0.004207 0.005051
-0.017005 0.002062 0.047549
0.009782 -0.011078 0.052568
0.007063 -0.013338 0.052193
0.004573 -0.015513 0.050206
-0.024983 0.002348 0.020597
-0.025256 -0.000716 0.019468
0.011923 -0.001185 0.056746
0.011286 0.001002 0.057608
0.000710 0.025620 0.013369
0.006621 -0.015284 0.049094
0.010441 -0.000696 0.058645
0.004926 -0.014421 0.051993
0.002233 -0.011466 0.057446
0.007935 -0.014175 0.049958
0.010034 -0.004610 0.057995
0.009266 -0.024643 0.001917
0.009920 0.001581 0.059155
-0.001686 -0.011551 0.057535
-0.010439 -0.010017 0.053298
0.001381 -0.014740 0.052823
0.006840 0.022993 0.027030
-0.005383 -0.013341 0.053669
0.004147 0.003919 0.062831
-0.006109 -0.006632 0.060340
0.022896 0.011316 0.016996
-0.003474 0.018263 0.044373
-0.024727 0.003913 0.020051
0.001930 -0.013884 0.054205
-0.014638 0.015371 0.036442
0.018301 0.014587 0.029368
0.010292 0.013176 0.048894
0.022252 -0.013764 0.009674
0.008645 -0.000209 0.060520
0.007171 -0.011988 0.054058
-0.005509 -0.009625 0.058203
-0.005269 0.016651 0.047058
0.005734 0.002189 0.062459
0.016503 -0.018801 0.022916
-0.007348 -0.013177 0.052337
-0.001823 0.025482 0.013816
0.006141 -0.009684 0.057614
0.014173 -0.000241 0.053417
-0.006790 -0.010651 0.056265
0.003073 -0.014926 0.051985
0.008473 0.002137 0.060446
0.025137 0.006455 0.010671
-0.005390 -0.014724 0.051399
-0.000643 0.025723 0.011788
-0.024933 -0.003945 0.021007
-0.008452 -0.002479 0.060443
0.011517 -0.003957 0.056527
0.008879 -0.006366 0.058179
0.009448 -0.002717 0.059355
-0.003869 -0.008096 0.060414
-0.025249 0.000910 0.018918
0.022787 -0.008818 0.024835
0.020091 0.011562 0.030169
-0.018866 -0.018136 0.001846
0.014521 -0.020387 0.023153
-0.005280 -0.003696 0.062319
-0.023555 0.007278 0.022527
-0.025033 -0.004938 0.019061
0.012647 0.023062 0.011710
0.007971 -0.025220 0.003901
-0.001335 -0.012955 0.055730
-0.006073 0.014700 0.050450
0.008891 -0.010453 0.054411
0.008170 0.024715 0.013171
0.024445 -0.003633 0.022483
-0.014234 -0.021813 0.024065
0.003776 0.025910 0.003336
0.004179 0.025818 0.005762
0.016407 -0.020458 0.011848
-0.024238 0.005688 0.021028
