1035
0.026210 0.000000 0.000000
0.024588 0.009526 0.000000
0.019604 0.017872 0.000000
0.011850 0.023798 0.000000
0.002411 0.026021 0.000000
-0.007028 0.024701 0.000000
-0.015326 0.020295 0.000000
-0.021755 0.013470 0.000000
-0.025304 0.004730 0.000000
-0.025451 -0.004758 0.000000
-0.022137 -0.013707 0.000000
-0.015778 -0.020893 0.000000
-0.007188 -0.025263 0.000000
0.002428 -0.026206 0.000000
0.011755 -0.023607 0.000000
0.019458 -0.017738 0.000000
0.024496 -0.009490 0.000000
0.020000 0.000000 0.000000
0.018649 0.007225 0.000000
0.014780 0.013474 0.000000
0.008915 0.017903 0.000000
0.001845 0.019915 0.000000
-0.005473 0.019237 0.000000
-0.012053 0.015960 0.000000
-0.017004 0.010529 0.000000
-0.019659 0.003675 0.000000
-0.019659 -0.003675 0.000000
-0.017004 -0.010529 0.000000
-0.012053 -0.015960 0.000000
-0.005473 -0.019237 0.000000
0.001845 -0.019915 0.000000
0.008915 -0.017903 0.000000
0.014780 -0.013474 0.000000
0.018649 -0.007225 0.000000
0.025399 0.004763 0.000000
0.022096 0.013699 0.000000
0.015727 0.020835 0.000000
0.007131 0.024910 0.000000
-0.002308 0.025361 0.000000
-0.011177 0.022498 0.000000
-0.018540 0.016882 0.000000
-0.023529 0.009100 0.000000
-0.025378 -0.000014 0.000000
-0.023794 -0.009232 0.000000
-0.018958 -0.017300 0.000000
-0.011483 -0.023078 0.000000
-0.002380 -0.025734 0.000000
0.007091 -0.024906 0.000000
0.015606 -0.020672 0.000000
0.021977 -0.013614 0.000000
0.025353 -0.004745 0.000000
0.019325 0.003612 0.000000
0.016715 0.010349 0.000000
0.011847 0.015689 0.000000
0.005380 0.018909 0.000000
-0.001814 0.019576 0.000000
-0.008763 0.017598 0.000000
-0.014529 0.013244 0.000000
-0.018332 0.007102 0.000000
-0.019659 0.000000 0.000000
-0.018332 -0.007102 0.000000
-0.014529 -0.013244 0.000000
-0.008763 -0.017598 0.000000
-0.001814 -0.019576 0.000000
0.005380 -0.018909 0.000000
0.011847 -0.015689 0.000000
0.016715 -0.010349 0.000000
0.019325 -0.003612 0.000000
-0.020564 0.000844 0.037850
0.023463 0.005224 0.024380
-0.002174 -0.026126 0.012256
-0.025055 0.004497 0.016221
-0.023007 -0.012073 0.005122
0.016045 -0.015408 0.033820
-0.012805 0.017777 0.033666
-0.021830 0.010925 0.021788
-0.000841 0.022767 0.029925
0.003300 -0.025586 0.020924
-0.025197 -0.005292 0.016547
0.015603 0.012357 0.040390
-0.024458 0.000181 0.023005
-0.018670 -0.012550 0.033930
-0.007312 -0.025473 0.019928
-0.025488 0.000735 0.008067
0.013329 0.022627 0.005633
-0.008426 -0.025183 0.009009
-0.024361 -0.008427 0.008352
0.000629 -0.026229 0.004135
-0.025219 0.005193 0.005323
-0.005121 -0.025768 0.004953
0.004272 -0.016032 0.048872
0.005445 0.019185 0.040045
0.018893 -0.017792 0.014360
0.018473 -0.000782 0.043909
0.014719 0.017377 0.030850
-0.008436 0.017477 0.041201
0.006450 0.021691 0.031091
0.011203 -0.023022 0.020554
-0.001683 0.020192 0.038828
-0.014345 0.000318 0.052759
0.006505 -0.022973 0.027943
-0.017505 -0.004980 0.044746
0.018531 0.017397 0.019417
-0.012040 0.015959 0.040371
0.020269 0.009312 0.032614
-0.022886 -0.003702 0.030373
-0.016008 -0.009967 0.043893
0.009611 0.014296 0.047252
-0.018222 0.003581 0.043880
-0.025614 -0.004126 0.008373
0.013332 -0.022487 0.007523
0.003929 -0.025843 0.016065
-0.015145 -0.016030 0.035199
0.005839 0.025018 0.010608
-0.022479 0.002409 0.031209
-0.002091 -0.023942 0.028515
0.002832 0.022686 0.030890
-0.025496 -0.003136 0.012721
0.002692 -0.026366 0.012302
-0.007481 -0.025704 0.014070
-0.008793 0.019889 0.033433
0.000132 -0.026192 0.015930
-0.018932 0.016244 0.013160
-0.023336 0.009242 0.013542
-0.022437 0.008302 0.024487
-0.023277 0.008365 0.018796
-0.024857 0.001705 0.019575
-0.019839 -0.016656 0.019205
0.002958 -0.026320 0.007862
0.010678 -0.024015 0.004881
0.024831 -0.007612 0.004811
-0.000417 0.025167 0.015429
-0.025532 -0.002145 0.004072
-0.005409 -0.025895 0.010032
0.004867 -0.025691 0.004253
-0.011190 -0.023866 0.012410
-0.024721 -0.007250 0.012285
-0.003897 -0.025963 0.015658
-0.021498 0.013851 0.005484
0.023959 0.010225 0.009292
-0.023150 -0.011902 0.011277
-0.025308 0.004772 0.010603
0.024793 0.006607 0.011149
-0.025429 0.002142 0.003465
0.014738 0.021029 0.013842
-0.021347 -0.015200 0.008804
-0.023348 0.009731 0.007588
0.015989 0.020395 0.009761
0.026106 -0.000210 0.006167
0.024933 0.007260 0.005367
-0.000512 -0.026247 0.008523
-0.024194 0.007637 0.003316
0.013021 -0.009461 0.049579
0.006026 -0.008706 0.058498
0.015029 0.008308 0.047139
0.000289 0.006467 0.062276
0.010968 -0.016031 0.041635
-0.009451 -0.003413 0.059064
0.018762 -0.008819 0.037902
0.015283 -0.000866 0.051177
0.005818 0.011851 0.055291
-0.003088 -0.017665 0.046221
0.010231 0.011577 0.051026
-0.002256 -0.013671 0.054255
0.020122 0.011568 0.028641
0.009319 -0.020089 0.034593
0.018368 0.007747 0.040429
-0.008470 -0.014538 0.048593
0.008414 0.022284 0.026762
0.020142 -0.008814 0.034057
-0.011534 0.006451 0.054888
0.011490 -0.021501 0.026407
-0.012346 -0.002711 0.055908
-0.011505 0.001887 0.057159
0.003954 0.018100 0.044069
-0.000913 0.017851 0.045653
0.020711 0.013576 0.021009
0.012579 0.017933 0.034013
0.021244 -0.001293 0.035795
0.003758 -0.019522 0.040921
0.009164 -0.021221 0.031078
0.023319 0.002853 0.026915
-0.012765 0.018790 0.030000
0.020501 0.003016 0.037239
0.016204 0.015331 0.033492
0.009996 0.017670 0.039597
0.022240 0.006417 0.028924
-0.000438 0.021798 0.033911
0.007908 0.017132 0.043648
0.015013 -0.020640 0.016605
0.024407 0.002629 0.021474
-0.020183 -0.011724 0.031081
0.018642 0.012317 0.032058
-0.009524 0.020857 0.028383
-0.005472 -0.022674 0.032026
0.018219 0.016614 0.024419
0.021399 -0.014164 0.012002
0.012721 0.014269 0.042407
0.024598 0.005362 0.016284
-0.019516 0.005005 0.039352
-0.014195 0.005521 0.051057
-0.021237 -0.007744 0.032017
0.022901 0.010641 0.018087
0.004014 0.021170 0.035147
-0.017608 0.007121 0.042079
-0.021169 0.004902 0.034536
-0.017874 0.017646 0.007566
-0.016335 -0.002719 0.048954
-0.012396 -0.021839 0.025692
-0.019286 0.000985 0.041402
-0.004482 0.020973 0.035191
-0.016535 0.002178 0.048317
0.015302 -0.020793 0.011699
-0.000622 -0.022535 0.033475
0.011609 -0.023415 0.015479
-0.017270 -0.011521 0.038891
-0.005392 -0.024034 0.027550
-0.016361 0.006339 0.045878
-0.022225 -0.009623 0.026477
0.001811 0.020649 0.038546
0.023595 -0.008957 0.019941
0.004913 0.022925 0.027812
0.013225 0.018918 0.029669
-0.008173 0.023080 0.020597
-0.021731 -0.004691 0.033816
-0.024044 -0.007595 0.020686
0.017457 0.011695 0.036661
0.015397 0.020178 0.016921
0.025649 -0.003040 0.003777
0.001637 -0.024218 0.028294
0.005996 0.014533 0.050684
0.021282 -0.013785 0.016272
-0.021792 -0.008689 0.029120
-0.009402 0.012769 0.050418
-0.013398 -0.015808 0.039243
-0.018028 -0.001150 0.044795
0.009114 0.023307 0.020472
-0.022983 -0.007696 0.025999
0.003320 0.025349 0.014840
0.025589 0.002850 0.008108
0.007195 -0.023916 0.023252
-0.001237 -0.024973 0.024945
-0.019831 -0.007246 0.036774
0.004004 -0.024467 0.025472
-0.021823 -0.000235 0.033879
-0.019444 0.008580 0.035377
0.007305 -0.024882 0.013642
0.025121 -0.005035 0.009782
-0.004400 0.025094 0.004694
-0.022572 -0.010365 0.024145
-0.013872 -0.013477 0.042127
0.001227 0.024900 0.020069
-0.023005 0.005114 0.027651
-0.023639 0.000780 0.026813
0.005197 -0.022077 0.032394
0.025176 -0.000217 0.018848
0.008321 0.020068 0.035018
-0.021972 -0.014428 0.015008
-0.005988 0.019646 0.038678
-0.025342 0.001546 0.012814
-0.016922 0.018665 0.003171
-0.019376 -0.003901 0.041126
-0.003890 0.018917 0.041953
-0.012611 -0.018810 0.034133
-0.004749 -0.025058 0.023811
-0.015493 0.019952 0.011827
0.006754 -0.025173 0.009238
-0.024995 -0.006476 0.004612
-0.022864 0.010911 0.003597
-0.025278 -0.000648 0.015723
-0.019604 0.015829 0.003361
0.020968 0.014373 0.015735
0.013492 -0.022370 0.003872
0.005306 0.025336 0.005138
0.023161 -0.011702 0.004592
0.001144 0.025617 0.011817
-0.020944 -0.003359 0.036895
0.024111 -0.009315 0.014295
-0.002668 -0.025792 0.019382
0.011895 0.022976 0.016079
-0.014466 0.020801 0.006331
-0.023655 -0.010136 0.015452
-0.019188 -0.017801 0.012618
0.023311 0.011600 0.005098
0.002436 0.025942 0.008271
0.011252 -0.023761 0.010862
-0.024959 -0.002394 0.020143
0.004251 -0.001483 0.063399
0.000639 0.001913 0.064182
0.012681 -0.005305 0.054133
0.007301 -0.004648 0.060437
-0.006388 -0.007205 0.059665
-0.003541 0.000634 0.063730
0.013408 0.003837 0.053618
-0.003415 -0.010884 0.057869
0.010459 -0.012271 0.049628
0.013089 -0.012622 0.045228
0.009586 -0.009750 0.054322
0.016929 -0.003484 0.046610
0.003790 -0.005626 0.062041
0.009858 0.008175 0.055653
0.017554 0.002755 0.045420
0.017468 -0.011975 0.036263
0.015498 -0.008564 0.045725
0.002255 -0.012206 0.056336
0.018310 -0.006163 0.041833
0.001536 -0.015399 0.051689
0.012032 -0.017392 0.036723
0.008493 -0.015299 0.047059
0.006350 -0.013641 0.052193
-0.005483 -0.003098 0.062392
-0.003785 -0.015915 0.049951
0.007522 -0.017708 0.042619
0.015599 0.010464 0.043003
0.016967 -0.016257 0.029273
0.000731 -0.017145 0.048120
-0.002675 0.003881 0.063320
0.016497 -0.010450 0.040984
-0.005988 -0.012952 0.053479
0.015139 -0.005690 0.049682
0.001859 0.016337 0.049460
0.018092 -0.017679 0.020365
0.018888 0.003046 0.041812
0.015808 0.004245 0.048902
0.012936 0.011543 0.047428
0.012368 -0.000344 0.056183
0.017232 0.006243 0.044675
-0.000653 0.010689 0.058343
0.016958 0.000587 0.047794
-0.006846 0.002084 0.061667
-0.000738 -0.019245 0.042627
0.019305 -0.014621 0.025194
0.020011 -0.005801 0.037305
-0.010495 -0.010798 0.051950
-0.006877 -0.016531 0.046218
-0.007648 -0.010121 0.056184
-0.012899 0.019797 0.025431
0.021607 -0.004210 0.032834
0.015675 -0.018407 0.025642
0.004269 -0.017851 0.044727
-0.010668 -0.006970 0.055910
-0.012686 0.020729 0.020709
0.005995 0.016291 0.047062
0.023923 0.006360 0.020494
-0.013016 0.003502 0.054350
-0.003106 0.016000 0.049358
0.008581 -0.018724 0.039198
0.020019 -0.000884 0.039797
-0.011848 0.009673 0.051049
0.001004 0.019476 0.041814
0.013250 0.007979 0.050782
0.022737 -0.003410 0.029042
-0.010086 -0.016070 0.043453
0.004544 0.008525 0.059641
-0.016113 0.015501 0.030826
0.014462 -0.020338 0.021652
-0.002014 0.023277 0.027078
-0.012637 -0.012118 0.046757
-0.013772 -0.004553 0.052678
-0.004358 0.022173 0.030665
-0.018928 -0.018077 0.015765
0.022053 0.010203 0.024349
0.005484 0.023757 0.023294
0.003881 -0.020963 0.036940
-0.016743 -0.020482 0.018897
-0.012000 0.021662 0.015456
-0.014498 -0.007774 0.049189
-0.006643 0.015028 0.048860
0.014386 0.014904 0.038195
-0.005815 -0.018932 0.042000
0.011909 0.023379 0.011784
-0.003309 0.024613 0.017398
0.021317 0.005560 0.032999
0.013430 -0.018517 0.030831
0.007213 -0.024670 0.017548
-0.000634 -0.020514 0.039276
0.009698 -0.006703 0.056906
-0.018282 -0.008115 0.040087
0.004684 0.003803 0.062561
0.019982 0.007643 0.036310
-0.008141 0.006513 0.058575
-0.010764 0.022616 0.010578
-0.003054 -0.006706 0.061631
0.020522 0.016286 0.004798
-0.010598 0.017742 0.037379
0.010969 0.003355 0.057364
-0.004199 0.006713 0.061099
-0.014091 0.013144 0.041432
0.023973 -0.001742 0.024806
0.000959 -0.008290 0.060908
-0.014472 0.015120 0.036397
0.005702 0.024535 0.017343
0.022376 0.001273 0.031802
0.010495 -0.003550 0.057887
0.023762 -0.010477 0.009305
-0.017252 -0.018809 0.023899
-0.009663 -0.022055 0.029087
0.014977 0.018372 0.027063
-0.000292 -0.003510 0.063901
-0.009780 -0.018476 0.038410
0.021624 -0.014105 0.008304
-0.014270 0.008965 0.048241
-0.012772 0.011656 0.046666
-0.010056 0.015090 0.045021
0.019556 -0.017444 0.009802
-0.021645 0.013540 0.010867
0.010033 0.024223 0.003533
0.010413 0.020772 0.030600
-0.005021 0.009992 0.057693
-0.015959 0.009759 0.043653
-0.010057 0.021561 0.023950
-0.008267 0.010153 0.055183
-0.020799 -0.012583 0.028064
-0.006267 0.024721 0.009802
-0.002589 0.023989 0.023028
-0.015946 -0.021526 0.013264
-0.020073 0.014772 0.016222
-0.006118 0.016922 0.045453
-0.007328 0.024145 0.014843
0.023254 -0.005790 0.025069
-0.016730 0.018216 0.016710
-0.009245 0.023564 0.005283
0.001556 0.013733 0.054287
-0.022037 0.011768 0.017108
-0.010858 -0.023541 0.021559
0.008757 0.000117 0.060418
0.007997 0.004888 0.059753
0.024262 -0.004219 0.020763
-0.017585 0.010316 0.038978
0.020020 0.013178 0.025436
-0.018405 0.013735 0.028865
-0.016521 0.016545 0.026250
0.003028 0.011447 0.056935
-0.013468 -0.022289 0.021440
-0.008982 -0.023752 0.024850
-0.000959 0.025476 0.008783
0.021360 0.014481 0.010329
-0.017008 -0.015814 0.031273
-0.022622 -0.012307 0.019794
0.020546 -0.016018 0.004970
-0.011850 -0.023512 0.016537
0.025710 0.000532 0.012758
0.015129 0.019506 0.022195
0.019182 -0.012296 0.030535
-0.004262 0.013275 0.053928
-0.005342 -0.020983 0.037004
0.017333 -0.019421 0.005789
-0.020953 0.010890 0.026375
-0.012610 -0.007697 0.052701
0.002061 0.023980 0.026123
-0.018062 -0.019066 0.009000
0.025738 0.002640 0.003999
-0.000887 0.015015 0.051782
0.020901 -0.013260 0.021390
-0.020516 -0.015939 0.004374
-0.018285 0.012178 0.033548
-0.018835 0.014655 0.024303
0.001632 0.025924 0.004393
-0.003116 0.024967 0.013217
-0.017577 -0.016844 0.027600
-0.006125 0.022955 0.026230
-0.012815 0.021668 0.003037
0.021396 -0.011094 0.025144
-0.015931 -0.021416 0.008350
0.012308 0.021015 0.024991
0.018658 0.018029 0.013720
0.008731 0.024046 0.014653
-0.016673 0.017334 0.022535
0.023672 0.010129 0.013911
-0.009512 -0.020611 0.033391
0.021866 -0.007535 0.029769
0.017786 0.019232 0.004861
0.024845 -0.004392 0.015452
-0.013548 -0.019763 0.030227
-0.024065 0.005403 0.022136
-0.020999 0.008215 0.030522
-0.021546 0.013383 0.014633
-0.019443 0.014909 0.020007
0.013040 0.021485 0.020240
-0.024184 -0.002941 0.025063
-0.009737 -0.024271 0.003878
0.017939 0.014940 0.029227
0.023405 -0.000256 0.028448
0.006063 -0.011395 0.055682
0.009921 0.024168 0.007648
-0.017215 -0.019762 0.004592
0.019223 0.017956 0.009103
-0.020107 -0.015173 0.024255
-0.014131 -0.022103 0.004484
-0.012821 -0.022984 0.008759
0.014784 -0.014102 0.039429
-0.015519 -0.019504 0.027257
0.006700 0.015170 0.032906
0.019071 0.000071 0.017946
-0.006571 0.016150 0.027985
-0.003652 0.019028 0.011679
0.001985 0.019520 0.011129
0.002167 -0.019662 0.007523
0.000231 -0.019714 0.004146
-0.006001 0.018821 0.007059
-0.014780 0.010319 0.024979
-0.003128 -0.010071 0.050899
-0.015686 0.004898 0.033036
0.006993 -0.015011 0.033244
0.002186 -0.014669 0.039816
-0.005886 0.015250 0.033595
-0.017036 0.009429 0.011547
-0.009173 -0.012562 0.037550
0.001647 0.015166 0.038648
0.016928 -0.003650 0.028403
-0.012433 0.015209 0.009044
0.018017 0.006996 0.015392
-0.018968 0.003287 0.015775
0.007390 0.017704 0.014821
0.014339 -0.012722 0.016636
-0.017036 -0.000222 0.029868
-0.001164 0.017212 0.028753
0.018712 0.004000 0.013847
-0.018780 -0.003117 0.017744
0.012779 0.014716 0.008851
-0.004157 0.018721 0.015122
-0.009590 0.016227 0.017542
-0.009775 -0.016950 0.006883
0.003750 0.018781 0.014336
-0.014742 0.012835 0.006569
-0.019089 -0.000577 0.014355
-0.014454 -0.012542 0.013816
-0.018828 0.005469 0.006824
-0.014128 -0.013570 0.005281
0.003272 -0.019004 0.013255
0.018579 0.005607 0.011535
0.018608 -0.006682 0.007168
-0.007070 -0.018391 0.003790
-0.000062 -0.019215 0.013722
-0.008650 0.017534 0.006280
0.008939 -0.017656 0.008158
-0.019328 -0.001209 0.010977
-0.002610 -0.019330 0.007891
0.003561 0.019233 0.008225
0.005655 -0.018650 0.007962
-0.004401 0.019096 0.009328
-0.006468 0.018357 0.011169
0.003302 0.019456 0.003638
-0.009537 0.017018 0.007980
-0.019605 0.002377 0.004358
-0.017387 -0.008976 0.008624
-0.004001 -0.019323 0.004088
-0.004894 -0.000809 0.058090
0.007810 0.009572 0.046647
-0.010618 0.011381 0.036853
0.005482 -0.010394 0.048409
-0.012656 0.006107 0.042100
0.002822 -0.006872 0.055609
0.012731 -0.003973 0.044342
0.003776 0.013577 0.041835
0.012646 0.002815 0.045136
0.007863 -0.011661 0.041986
-0.017903 0.006199 0.016160
-0.002375 0.014581 0.039708
0.015019 -0.002854 0.037724
-0.013190 -0.007913 0.038208
-0.014976 -0.004616 0.036385
0.009399 -0.013154 0.034113
-0.003144 -0.013097 0.044097
-0.012515 0.013939 0.019075
-0.014622 0.008639 0.031364
0.000032 0.014152 0.041847
0.014757 -0.008913 0.028788
0.012303 -0.011493 0.032167
-0.016300 -0.001983 0.033481
0.001632 0.016219 0.034632
0.000995 -0.017201 0.029868
-0.011785 -0.011062 0.034115
-0.015638 0.001967 0.036363
-0.016205 -0.006382 0.027813
-0.003120 -0.017852 0.023676
0.016457 -0.008216 0.021789
0.013414 -0.014370 0.006285
0.016266 -0.009536 0.017047
-0.012487 -0.011489 0.030230
-0.004012 0.017441 0.025877
0.003773 -0.015299 0.035917
-0.018219 0.006025 0.013366
-0.018769 0.005118 0.010601
0.001377 -0.016565 0.033169
-0.005257 -0.016279 0.030507
0.005090 -0.017870 0.019606
-0.015691 -0.005614 0.031835
-0.015524 0.011369 0.013817
-0.016435 -0.007142 0.024776
0.018553 0.003819 0.016093
-0.002104 -0.016271 0.033038
0.004852 0.014962 0.036036
-0.001098 -0.014929 0.038905
-0.006878 0.017465 0.018514
-0.005678 -0.014954 0.035200
0.008040 -0.015592 0.028524
-0.017598 -0.001894 0.026747
-0.000600 0.015556 0.036730
-0.016498 0.001601 0.032567
0.019059 0.001755 0.014737
-0.010430 -0.013978 0.029204
0.010988 0.015854 0.011832
-0.017030 0.010014 0.007687
0.004669 -0.016775 0.027834
-0.018803 0.000606 0.017521
-0.012123 -0.015232 0.012604
0.010009 -0.016612 0.011594
0.003883 -0.017352 0.025778
-0.000909 -0.017843 0.025136
0.016783 -0.009263 0.013628
-0.015212 0.012095 0.009902
0.008920 -0.016945 0.016544
-0.001795 0.017462 0.027017
0.010526 -0.016615 0.004464
-0.017714 0.008583 0.003503
0.001127 0.019715 0.006957
-0.000285 0.019676 0.003541
-0.002808 0.019354 0.006861
-0.007971 0.017360 0.014301
-0.009686 -0.016778 0.010835
0.019341 -0.002752 0.007205
-0.013297 0.014541 0.003192
0.007105 0.015721 0.029717
0.009986 -0.016407 0.014074
-0.003015 -0.015269 0.036978
-0.017276 -0.006319 0.021191
0.002050 -0.019037 0.016824
0.015720 0.011741 0.006431
-0.019220 0.002766 0.012615
0.007962 0.013844 0.035503
0.015364 -0.012441 0.003925
0.014228 0.013760 0.006169
0.005902 -0.018096 0.015172
0.019689 0.001463 0.003189
0.007457 -0.017877 0.012401
-0.018961 0.005397 0.002570
0.007244 0.018264 0.006340
-0.006011 -0.018755 0.008352
0.009839 0.013389 0.032039
-0.011334 -0.016260 0.004218
0.008624 0.017541 0.012452
0.002332 -0.000862 0.059546
-0.004863 -0.005877 0.055396
-0.009376 -0.001832 0.052690
0.002192 0.010928 0.049459
-0.010354 0.007297 0.046099
-0.008338 0.006677 0.050403
-0.007925 0.010609 0.044924
-0.001313 0.003709 0.058886
0.001415 -0.004099 0.058642
0.011605 -0.001908 0.048070
0.006013 0.004011 0.055803
0.013881 0.000608 0.042864
0.011352 0.001510 0.048759
0.000958 0.013020 0.045321
-0.011059 -0.005858 0.046442
-0.012694 0.001813 0.045783
-0.013724 0.008223 0.035834
0.010851 -0.007186 0.044978
0.001321 -0.011000 0.049821
-0.006918 -0.008519 0.050010
-0.012188 0.010712 0.033828
0.004359 -0.008920 0.052062
0.004194 -0.013061 0.043001
-0.013799 0.012003 0.022051
-0.010323 -0.003449 0.049967
0.007569 -0.010431 0.045298
-0.005016 -0.011132 0.047002
-0.010684 0.004114 0.048732
0.000178 -0.009297 0.052959
0.010131 0.008944 0.044125
-0.005309 0.013744 0.039946
-0.007425 0.013607 0.036946
-0.012403 0.008570 0.039000
-0.014245 0.005290 0.038075
0.004867 0.011765 0.045899
0.014268 -0.002952 0.040290
-0.008283 -0.009021 0.047007
0.010017 0.007506 0.046344
0.002691 -0.012100 0.046574
0.011120 -0.010108 0.039580
-0.015030 0.009072 0.028497
-0.013042 0.011754 0.027000
-0.001184 -0.012095 0.047119
0.017917 -0.002018 0.024246
-0.012584 0.011368 0.030281
-0.014241 0.001810 0.041363
-0.011863 -0.010027 0.036821
-0.016053 0.006043 0.029256
0.012393 0.005919 0.043173
0.005214 0.018557 0.011807
0.000512 -0.015691 0.036605
0.006133 -0.013783 0.039016
-0.014200 -0.011801 0.020769
-0.002263 0.016389 0.032431
0.012691 -0.014712 0.009920
0.016424 0.003245 0.031443
0.015393 -0.000044 0.038277
-0.008246 -0.011974 0.040865
0.017683 0.008071 0.011686
0.000612 -0.013370 0.044307
-0.016997 0.003119 0.030077
-0.007653 0.015166 0.030128
0.014161 -0.008421 0.032681
-0.014010 -0.008274 0.034603
-0.003459 0.017046 0.028500
-0.012464 -0.012601 0.026110
0.014559 0.010874 0.023401
-0.013583 0.013317 0.015303
0.019458 -0.001207 0.010624
0.019310 0.001704 0.011512
0.007272 0.018335 0.003018
0.006828 -0.014356 0.036209
-0.016803 -0.008220 0.019090
0.011604 -0.015055 0.015335
-0.014560 -0.008940 0.031092
-0.000148 0.019203 0.013764
-0.009894 -0.013388 0.033046
-0.013031 0.014245 0.012523
-0.019608 -0.002407 0.004169
-0.004899 -0.014047 0.039639
0.012248 -0.010111 0.035965
-0.004018 0.015171 0.036997
-0.005299 0.016260 0.030494
0.003658 -0.019352 0.003817
0.001180 0.017145 0.030257
0.009047 -0.012406 0.037478
-0.001442 0.017745 0.025458
0.003986 0.016257 0.031518
-0.010402 0.016374 0.011518
-0.003914 -0.018983 0.011988
-0.001393 -0.014150 0.041437
0.003543 -0.019111 0.010596
-0.004846 -0.017261 0.026521
0.014818 0.006794 0.034053
-0.016061 0.011502 0.003564
0.016861 -0.009909 0.006283
0.016903 0.009664 0.008541
0.012768 -0.013210 0.022411
-0.013943 -0.011430 0.024096
0.015045 -0.012696 0.008203
-0.017031 0.008718 0.015056
-0.012093 -0.014935 0.015428
0.005448 0.017995 0.017560
0.016095 -0.005310 0.031142
0.009876 0.010962 0.039843
0.015716 -0.002817 0.034985
0.012900 -0.011574 0.029740
0.006905 0.013489 0.039051
-0.011426 0.015556 0.015198
0.012594 0.011815 0.029964
-0.016309 0.006871 0.026176
-0.007854 -0.014872 0.031052
-0.006685 -0.003387 0.055516
-0.007952 0.003229 0.053982
-0.003735 -0.003700 0.057828
-0.006054 0.005839 0.054236
0.006460 -0.004494 0.054998
0.005569 0.000975 0.057435
0.005669 0.009776 0.049230
0.008097 0.002530 0.054212
-0.002722 0.001165 0.059459
-0.001436 -0.002241 0.059528
0.009295 -0.004045 0.051600
-0.001357 0.011806 0.047798
-0.011029 -0.000029 0.049634
0.007925 -0.001656 0.054678
-0.005393 -0.007869 0.052618
0.002615 0.003744 0.058456
0.001362 0.007128 0.055797
0.006597 -0.006520 0.053059
-0.012212 -0.001990 0.046974
0.003445 0.017478 0.025770
-0.001311 -0.006350 0.056661
0.004763 0.006016 0.055243
0.014268 0.008915 0.030996
-0.010182 -0.008956 0.043447
-0.007861 -0.005516 0.052488
-0.010168 -0.015684 0.019674
0.005693 0.016701 0.026602
0.010547 -0.014790 0.022995
0.012738 -0.000194 0.046124
-0.005215 0.002978 0.057158
0.016049 0.006436 0.029884
0.007611 -0.007525 0.050542
0.014979 -0.010206 0.023363
-0.016950 -0.010477 0.005021
-0.009114 -0.006518 0.049426
0.010403 -0.005761 0.047806
-0.003067 -0.008122 0.053898
0.019322 -0.000846 0.013597
-0.000980 0.018857 0.016862
0.017627 0.008772 0.004360
-0.014705 -0.012537 0.011203
-0.008864 0.011859 0.040293
-0.010492 0.009059 0.042562
0.007472 -0.018257 0.004315
0.003539 0.017014 0.028279
-0.004655 0.011603 0.046360
-0.007313 -0.017263 0.018390
-0.014264 -0.003068 0.040817
-0.010915 -0.010001 0.039481
-0.017056 0.005438 0.025016
0.015601 0.009870 0.020639
-0.013687 -0.005667 0.039459
-0.001174 0.019393 0.009355
0.007509 0.011387 0.043290
-0.016685 0.007182 0.023038
0.009832 0.017147 0.004159
-0.007420 -0.015744 0.027902
0.010310 0.013792 0.028893
0.008888 -0.008581 0.046994
-0.006674 -0.011687 0.043800
0.004680 -0.003074 0.057492
0.010031 -0.013619 0.030516
0.013473 -0.014418 0.003044
0.014480 0.002724 0.039724
-0.007550 0.000078 0.055399
0.014019 -0.005304 0.039651
0.013679 -0.011407 0.026515
0.018276 -0.006901 0.012427
-0.009804 0.001095 0.052007
-0.013432 -0.000461 0.043812
0.018526 0.006918 0.008039
0.011652 0.010114 0.037937
0.017542 -0.000954 0.027798
-0.016970 0.007837 0.018935
0.002189 0.018906 0.017711
0.016710 -0.006346 0.026786
0.014766 -0.012746 0.011971
0.016074 0.009847 0.017041
-0.008824 0.004453 0.051949
-0.012927 0.012310 0.025167
0.017537 0.002616 0.025990
0.014530 -0.006130 0.036588
-0.008571 0.015276 0.027361
-0.003122 0.018387 0.019460
0.016077 0.001079 0.034830
0.009986 0.000197 0.051923
0.016968 0.002905 0.028927
0.017259 0.005882 0.023803
0.017765 -0.008582 0.003272
-0.017628 0.001930 0.026560
0.003796 0.017982 0.021655
-0.000022 0.001262 0.059862
0.001394 0.009454 0.052571
0.012956 -0.007673 0.038587
-0.005489 -0.018488 0.015449
0.014329 0.012820 0.016170
0.016936 -0.000850 0.031106
0.018996 -0.005152 0.003449
-0.017807 -0.008363 0.003016
0.018302 -0.002686 0.020440
0.018534 -0.006264 0.010277
0.015002 0.002976 0.037702
-0.006876 0.009544 0.048387
0.007085 0.005957 0.053089
-0.018097 0.004086 0.021524
-0.019441 0.002782 0.008922
-0.012624 -0.015017 0.008809
0.017964 0.002473 0.023329
0.018768 -0.004143 0.012754
0.015218 0.004415 0.035826
0.012306 -0.014737 0.013228
-0.011405 0.016174 0.005968
-0.012260 0.004364 0.044977
-0.002531 0.013291 0.043708
0.017373 -0.003594 0.025877
-0.014482 -0.012132 0.016775
-0.007624 0.018112 0.003969
0.014168 0.013368 0.012815
0.018016 -0.006775 0.015922
-0.009084 0.016018 0.021225
-0.019506 -0.001058 0.007491
-0.016909 0.004723 0.027485
0.011131 -0.016031 0.007614
-0.017837 0.007729 0.009241
0.015017 0.012692 0.008755
0.016058 0.010761 0.011144
-0.015269 -0.001480 0.037793
-0.002193 0.005739 0.056986
-0.012644 -0.013230 0.022257
0.015901 0.010628 0.014040
-0.016800 -0.009277 0.015215
0.015160 -0.010642 0.020375
0.005782 0.016984 0.024689
0.017275 -0.008918 0.010045
-0.015212 0.011175 0.017837
0.013622 0.003636 0.041943
0.011051 0.004884 0.047580
0.018593 -0.003779 0.015744
-0.010008 0.013379 0.032848
-0.019107 -0.003820 0.012941
-0.018189 -0.002516 0.022772
0.018966 -0.004149 0.009613
0.015292 -0.009105 0.025506
-0.005117 0.008345 0.052100
0.008140 0.007368 0.050117
0.010628 -0.013851 0.027575
0.011944 -0.007543 0.041731
-0.003293 0.010366 0.050226
0.006394 -0.015808 0.030299
-0.018193 -0.005901 0.014258
-0.018994 -0.005272 0.003674
-0.018051 0.000174 0.023769
0.000338 0.017629 0.027200
0.004405 0.014362 0.038714
0.011646 0.008514 0.040903
-0.009140 -0.016750 0.014613
0.009489 0.017206 0.008750
-0.005961 0.012283 0.043173
0.009459 0.003837 0.051545
0.010665 0.011870 0.035275
-0.001987 -0.017240 0.028185
0.004513 0.008482 0.052549
-0.000132 0.018548 0.020463
0.009823 -0.009393 0.043858
0.017601 -0.004553 0.023148
0.005786 -0.017088 0.023993
-0.012590 -0.005644 0.042797
-0.006483 -0.018265 0.012329
-0.002216 -0.018861 0.015579
-0.019184 -0.004345 0.008564
-0.012891 -0.013527 0.019075
0.015380 0.012420 0.003781
0.015826 0.008915 0.023064
0.009450 0.012081 0.037541
0.011877 0.015540 0.006068
-0.017963 -0.006987 0.011828
0.016837 0.005218 0.027279
0.001467 -0.017758 0.027054
0.017027 0.007657 0.020234
-0.016662 -0.010332 0.011814
-0.017135 -0.005426 0.024554
0.015024 0.009043 0.027130
0.007351 0.018079 0.009710
0.012551 0.010486 0.033980
0.019710 0.000784 0.007179
0.008244 0.016577 0.022687
-0.004580 -0.016994 0.028218
-0.017639 -0.006618 0.017153
0.001054 -0.019493 0.011216
0.011039 0.015539 0.014789
0.010943 -0.014072 0.025313
0.011422 0.014169 0.022756
0.000274 0.005335 0.057784
-0.015698 -0.010424 0.019219
0.014485 0.011875 0.019721
0.003941 -0.016227 0.031716
0.012364 0.012825 0.026206
-0.001196 0.009206 0.052900
-0.015884 -0.011482 0.008229
-0.003683 -0.018276 0.019979
0.005708 -0.011692 0.045496
0.002651 -0.018083 0.023292
0.019013 0.004142 0.008728
0.011707 0.014578 0.018623
0.018154 0.003569 0.020293
-0.010131 -0.014781 0.025814
-0.007774 0.016087 0.025040
-0.012352 -0.007782 0.040942
0.013063 0.008521 0.036546
0.012813 0.014896 0.004116
-0.015292 -0.012361 0.002671
-0.002915 0.007428 0.054877
-0.010855 0.013858 0.028140
-0.016900 -0.003396 0.030139
-0.000144 0.010522 0.050742
-0.012956 -0.003108 0.044452
-0.014793 -0.009819 0.027054
0.013899 0.006203 0.038483
0.009267 0.015143 0.026309
-0.001549 -0.018247 0.021832
0.018978 0.005124 0.004763
-0.007438 -0.016537 0.023285
0.008407 -0.015876 0.025884
0.009009 0.016585 0.018848
-0.006125 0.017285 0.022664
-0.010561 -0.015079 0.022642
-0.015938 -0.009218 0.022747
0.000883 -0.018531 0.021368
-0.000766 -0.018670 0.018880
-0.013391 -0.014449 0.002571
-0.018463 -0.000138 0.020612
-0.018012 -0.007656 0.005971
-0.011545 0.014070 0.024054
-0.015995 0.009743 0.020848
0.008593 -0.016448 0.021893
0.019696 -0.001387 0.003744
0.011186 -0.014901 0.019140
0.015346 -0.005861 0.034113
0.006432 0.017394 0.020382
0.010228 0.015388 0.020774
0.000237 0.018080 0.024261
-0.002061 0.018041 0.023026
0.018626 0.000052 0.021781
-0.004213 0.019307 0.003840
-0.010858 0.016521 0.002730
0.018047 0.005394 0.018223
0.017965 -0.005022 0.019592
0.015355 0.016972 0.000000
0.012120 0.019385 0.000000
0.020400 0.010255 0.000000
0.018158 0.013770 0.000000
0.004196 0.022334 0.000000
0.015294 -0.016900 0.000000
0.004269 -0.022386 0.000000
0.012079 -0.019325 0.000000
0.008248 -0.021173 0.000000
0.008265 0.021207 0.000000
0.020343 -0.010222 0.000000
0.022654 0.002183 0.000000
0.018095 -0.013716 0.000000
-0.004102 -0.022390 0.000000
0.000041 -0.022701 0.000000
0.021836 0.006261 0.000000
0.022590 -0.002026 0.000000
0.021793 -0.006220 0.000000
-0.011894 -0.019366 0.000000
-0.008150 -0.021155 0.000000
-0.018040 -0.013725 0.000000
-0.015208 -0.016748 0.000000
-0.021718 -0.006314 0.000000
-0.020171 -0.010102 0.000000
-0.004060 0.022182 0.000000
0.000045 0.022565 0.000000
-0.022460 0.001954 0.000000
-0.022424 -0.002050 0.000000
-0.020169 0.009906 0.000000
-0.021579 0.006168 0.000000
-0.011680 0.019155 0.000000
-0.008030 0.020895 0.000000
-0.015135 0.016487 0.000000
-0.017829 0.013502 0.000000
